-1.479023052993714,-46.07441976330072,-207.58871364024526
-5.078070164160183,110.01816189157364,-117.10988911007613
19.673862785423474,67.29573454276924,-96.44008745769136
-48.0885073267015,5.413941451696104,-3.0008163336215716
40.83791628609272,-57.993142277795016,-5.6763487133591255
-31.03412952035924,-26.93170105477028,45.024263429696106
-59.47340045370818,18.849083428725343,-5.862875269260719
-21.33566280682658,48.53190106976979,-71.3840723611381
2.4120219360533284,-8.266388789581017,89.97138640204247
-48.29920008920247,-14.81524799144795,-12.139518099124786
51.98235784262846,-19.30314354273243,173.6323471218888
-50.304312744788035,100.99897867430735,-8.058284592376225
-14.699997622697474,-14.08630886266353,-60.59999977251577
96.08854043235384,20.805321590085974,-256.9953179938375
-59.66057019246917,-31.925721413526663,41.95260806121897
-5.153849902381298,-48.20571425582966,60.01418601341885
-46.85648616435863,-76.96953948548052,-14.692737742063319
27.23001296410728,-70.81321262072287,-0.7251587083035176
53.5863446804163,53.81720376363337,-129.8392563997948
-22.611624522493884,50.06967275973976,14.722012602054384
-64.49842954616382,15.229150300724626,84.05894015640925
-2.671870300327612,59.46383313683839,-117.18620966555557
17.912482145945283,-39.72351862506798,-18.968950016748416
-116.96167310587278,-79.46291671295292,-117.94027657002178
-4.996995397810732,-64.10695555549539,4.77306259439257
-3.4453727016817197,61.17815321502475,0.7753906486914346
25.141349617585945,-44.92315127751484,-70.66855406808546
-70.92397025518619,-40.92601611498812,-100.04362985803073
-38.98542722701597,-18.068936393330468,-130.95683824860407
-44.54257617354151,-47.74104841183529,26.67073440574839
-59.47378705955007,-14.71105708948209,-160.77917415827352
-76.75068559441789,-30.081361333895973,160.88385185101305
-76.6775000578132,-38.08611847274868,50.17927038786186
38.2824803885469,-43.382664695277725,-12.179466120502504
14.304061796087183,-53.10478429942747,-38.9535055170727
29.00199835073994,4.8836169440020285,-36.75659039952335
-24.338332707781923,-0.5878815583420369,111.79381563044839
-50.789051724036085,19.68561809711096,92.93785192133194
0.966405114523198,-33.41743804020978,-120.70333512081723
-18.220972605397396,16.225471737444813,-87.95425218849775
8.376543283869722,-8.03719584494334,-34.52783469042535
26.555613022324223,-15.507460269627362,-58.52397506974003
-5.916137841977662,-18.65294681154708,-18.137799658392098
-73.15811536837114,-7.826320471109,91.79331974490051
-53.424906075752205,-77.53411114300292,30.89611550461801
-30.698036627708586,5.013652714253553,-35.84573338185177
-15.532213052967506,-46.36931009863066,45.40597349732823
-52.653406577028385,29.0227651844762,-72.15758928236826
6.858230991298171,-28.245557941338866,-57.618293303434015
23.653621367150812,10.928509653912805,13.944633302352052
-22.64646283283041,4.926873736582131,-147.93096574626313
17.15428180339113,10.22250597962612,-230.23857431634343
15.837881809211495,-22.706210594963107,-93.08484792969385
-76.74759187620468,-59.745059238526366,-17.42730289339032
6.240662262396523,11.477522472429612,43.552916064834136
-31.391023692050535,-16.165188414841825,-111.87738631519379
22.402279547154656,33.77262926480473,84.05953712767045
43.61673041715483,2.4163756741887568,-48.354586407244895
36.46808854851634,39.65560466505992,-167.3388483718514
22.616157239948926,7.083647354424336,-53.18076303768815
3.3547588423642196,21.91313365090309,-141.27326705087805
2.9229199806510877,-63.69303250581147,43.287405832851874
-56.90253383145388,-41.64718149070606,-109.32233221118979
-87.51533330109413,5.434038520948352,104.69124672171648
-24.482887119137384,-85.87819681617022,-24.586795414803753
-3.9594484464114963,-25.11676409386294,-17.427042975481495
-54.027470056465305,-22.96251943803766,-183.35902617957785
-2.7650935598703903,33.99003219834805,-150.2842047489065
-64.19386780355762,-54.70501265715991,-16.639656383439288
-23.625831586552,-16.54365278933608,-29.016833480004937
-41.02549984057134,-31.7657371729864,-27.137401486115827
-17.998345714099294,-16.115283973763827,1.4207495728775683
-7.947465128714889,-15.439500430261246,-62.26616597508602
-31.468583053459636,-72.64986876718683,136.44702383851262
-35.41746955920942,4.624309135285269,-124.55663190024953
-51.446042669544255,64.24202588387115,30.618715513828676
12.484517563119852,-26.523160609903993,-74.50473121145282
-0.21829537392052956,-124.75750241627361,-92.56851652173165
-33.182362487567616,12.102020859533617,-9.932745207296726
28.800472210005367,16.02333669081125,-192.76736955088367
-74.68147890789089,-16.2530263671297,-82.53846190118371
-40.02139708432601,-25.113246625689076,30.741300148247404
-40.58136445927049,-27.31937263052119,1.0017351143242337
-23.582384151102975,-21.783209183511197,-162.36445594403807
-71.42185565642262,-62.8446845416568,47.80542860361257
13.494048273139406,-65.42701259311617,-58.41539235166204
-90.67727479753789,-37.465487507485044,-107.0412811812909
-87.1914117067275,-48.369063541976054,21.487924179366935
35.417639895584294,-78.22155824057396,-133.94121205465
-19.720951432545895,-18.091900811025535,51.6279462726058
-45.872620380202406,-43.39158303693367,-40.60069977260814
-49.26479916853343,48.56455648996342,-155.1883409479558
-19.487220792999146,-39.3841179773499,-145.92299840237564
-2.510978094475899,-0.8562716767923781,-56.682323705107166
-43.35218427976943,30.385792055191544,6.364872194942009
-26.02467806250811,-95.64896146646538,-81.72599962895376
-7.6746584215032705,-16.317141808772845,1.4012519189051105
-64.3428507767881,43.338443360206014,67.02403608835525
-77.25478386477218,-62.58746359151007,9.3719248232318
-28.57135592170463,13.693768682237462,-54.38137455779387
-50.814581035671914,-80.26532580405107,-34.94583834424713
-58.64124919350267,-34.367767882277626,-83.17374922540637
57.944661085834866,-47.47547038882885,-186.00713629927324
22.32053746965947,14.966792787647215,-92.20032637185508
13.68330929692852,-40.27868664758883,3.7074618745417283
-14.461499777523917,64.51054267822089,17.916895283208618
-55.05734338548257,-33.567177018142246,2.7963424750997845
-43.44114497141042,-55.12853410617183,46.72168926537975
15.930380004244384,-20.1491833807968,15.195018624132132
-87.45184892145528,41.98542261304547,-185.06337879768967
16.204217579875753,-20.364860662571463,-138.53449203466062
41.670861943346424,-113.18349522137746,1.6932152426994236
30.229624052165526,-20.694595081354535,-5.14300655134015
-50.94565324812304,-106.68206264461932,35.45375506792466
-57.71012920436489,1.4010370883739007,55.963140533308746
-64.46007217804572,-32.60948471730242,-84.68610143145665
-49.47072856427483,4.445793272804135,62.30507863131061
-34.98523299839051,14.442583745512096,-102.14511525270595
27.780423839630572,-21.964483426592945,67.22189590201862
-31.40523899571312,20.898612325708577,-106.73183729662139
-63.83339609143127,-10.622043844860144,-1.5903429826650992
42.47089126284226,10.548466741930056,-87.43495771936068
13.408996267438958,-29.824708022359584,-146.23509614485766
26.50107799148774,51.90028186711402,52.67864068180181
-26.631477356940533,-48.847300091955304,-108.53778836552982
-26.15064182652112,-50.14224356555281,-108.53713243865005
83.81895090558959,-24.56587797295305,40.54808870752166
17.72201574077681,-46.437051767828976,-179.98885916130456
-49.07301821999843,-17.18098058801833,-81.43812431956937
-37.709184910957866,34.92587986011596,33.150143160297716
-69.14490584494179,35.96388171102019,119.73822734809099
-35.38599068873057,-21.682319284305528,32.996359784513146
-29.888837907959473,-51.979817347522285,-21.047014321315284
23.209170829693342,54.66298776111708,-26.38573800664569
-72.34609811326321,-50.0090863373445,45.82833096791123
-13.776577601267777,-70.90215114875714,49.17649277936498
51.7567083777877,13.590341271151914,-51.601834433347214
-97.99562204925392,-65.8053631855618,3.257016521783136
36.129306703185335,-102.23653419761536,-22.09480924532936
-77.11363828915344,-52.60682723885667,-149.47882991498483
-23.070030940328813,-57.21332199066534,-42.51177780434039
-12.7332748113481,-54.086863145072684,23.867259338687816
-19.9486180166669,-67.73605219854599,-66.1654969244522
-3.1587261773187087,-47.221047788535444,39.13224411561916
19.44136014095791,-73.52390119624631,-112.12156202879339
-50.99895464144562,3.9367854839453607,-71.32067690266803
-49.80622653135676,-68.78951482283026,-77.37708254111628
-3.676900104321497,24.413344474982345,-158.10712638712747
-0.4756128159682831,6.65462586707023,-66.21805265976086
-12.041921906798152,-63.777730515583,65.03562965088612
-37.02171060847205,-18.13663084819341,-217.90980294412367
6.346775302744451,-61.694871364804996,-99.86762047194767
-30.891812774357774,-29.7564208079573,-49.13940697453829
-99.40543403295406,-13.345706092700286,-121.08851165504801
-77.92868963900665,1.6731254237958595,-79.16102688089268
-4.144981464730389,-72.40832103959696,-13.049395214905172
-35.87882182608913,-27.698667545461603,40.81310398678556
25.454903186485048,-20.97904561072356,99.97935246038742
-36.77028041189237,-57.86811879842201,-86.1725624677263
65.0972225873913,26.267727622818093,-58.39846186738552
-54.536553046157145,-30.128136026233882,-160.34313497287644
10.05924547252986,-47.574136163392,-187.17858901065168
-10.976096275077742,0.17215220158779232,-78.93933820088974
-1.8745351625032782,52.15575840205949,57.10425648696287
59.644940257664345,4.265978283417656,-13.638490737702924
-39.54214545872138,-11.801266128293834,81.94407073084797
37.8941697438452,-21.344777452206877,-45.974089309530115
-33.38652802109685,-28.970732601465386,-47.344600359196086
9.105564701640148,44.0468310326719,-66.77877888326842
-1.6112821974405058,-25.060012014862068,-46.80390373946456
-82.3624891421436,25.003400460475632,-234.84136893558198
-16.900454240623976,63.175401273279036,-132.6524068045134
-38.77717059041726,-35.23149518259267,-28.414920015151157
86.44329569280656,6.098343464549533,30.523757887193568
26.55761485194592,-61.59160670520202,-134.72985990093431
-23.97263311009011,-20.5855653824837,47.35638163059399
-1.9435568541665305,-82.89033394006552,-150.0980546078427
-48.65127741317751,-44.10274966132759,-95.64206202246922
-23.398955493076375,-71.59855646534874,-17.98972897771
-19.20156875197111,-39.12140053428868,105.17182989084088
13.393565959082125,-21.32666990454638,16.33265077793549
-85.15804704430931,-72.0301131818689,28.793637491458583
-26.037540788555667,-17.82801925810675,-36.43487670089145
-82.58893875263027,-61.345164217936585,-7.389395197670396
-13.5998336159294,-5.8987684508089995,163.3024019193859
-17.369656638295172,-31.747874987760547,-16.885316700204122
-19.353571157792626,-29.949246241062163,-88.5225483725291
-28.714638563491402,-1.5724900166152587,-81.85546512525315
-30.13198009103153,-53.317450708893595,-44.946787521043476
15.93723942616505,-3.4359177628354907,-69.00879854632849
11.7463875167406,-14.401266215397973,-50.10315520318868
-25.444580250606073,25.40736479478207,49.00017202744415
41.78305321624403,3.134740875693005,-27.7117623061994
27.64386512732373,9.263551131400469,9.61551480933936
-23.311084568773534,-13.451526458777892,95.5358413175241
4.633656488787331,12.460650033094282,-58.25859101966202
6.515655460150668,7.345570285742188,-149.44017507031714
-9.406060653888652,-21.851242830618943,-4.355602748241132
-8.916795973068059,-7.937215901194705,-218.40549240328392
62.11294093009782,-15.708963090768883,-5.9048703966110665
-1.7924555986919053,-85.46435987662463,-17.9815408049896
22.32914459527352,19.364940966650536,1.9485248988713835
29.496886798481867,-65.12479608629617,-151.74235411970628
43.72431800970796,-9.181820450826661,-36.80917168735405
-22.006235171836046,-62.668085425614834,-86.4601364018941
-76.12923114462869,15.5668904374757,43.78350066583509
-25.168869205992078,-41.749773759978005,-7.014862292681215
-11.480378144980545,34.47785886395445,60.382498672887834
-14.898270394384802,-31.194888856629113,0.09563539146547839
-7.283734756904014,-5.997596181073302,56.80158533444306
53.31834818720915,-19.37058165143501,-153.89690066749714
-47.14515697112539,-8.684928885732985,-192.3982903492576
-11.576126738705119,-29.877549184104264,-87.60443905396517
58.87720169674947,-76.80227004282781,-64.46734169952032
5.6596897196807525,9.600583261302546,-11.821505219518983
-10.5546547296861,30.01349549197638,-81.21937276296845
-75.92029536429835,26.33917179354458,0.36262454146535106
-53.34189245109363,-46.351959850781626,-89.31394472034512
-50.93227815041578,-5.8498795402954045,-89.30998576870132
68.7617267643711,29.533266153167297,-169.59235283761868
-32.28903222157379,24.672077223355302,-118.72268550016736
57.9037257852973,-77.99900562065521,-61.95519110133441
-19.950629124883882,-99.5407663030788,41.42732888083654
-13.70452548767921,-1.229573625849227,-106.74973290569746
14.605740746574561,35.419130923142305,-144.93953749317063
-44.23081589231707,-2.0678461699908333,-17.186780716427155
-29.750078172214238,-53.83105003909938,-114.54594383260395
-22.32399094082105,-22.904170109644248,-151.26841050625444
27.667668407582163,-113.43725154945624,-12.017636862793665
8.003750589589245,-70.70941905294822,-122.51307428931484
-45.06428962142212,-22.328418757634722,-167.13285284589205
-2.334932747663448,-115.47558788900116,-138.43860682894268
-22.931093185354854,-4.9199848817385,-83.3742524970333
-50.609496861915055,-20.80841818471083,-97.50971093549279
-1.7709004103796957,-78.68116474686401,4.4445679877204185
-15.949810912043969,6.507817145310071,-55.013919656479025
-5.710308235043106,27.411676103447682,-46.944310328377
-29.771651943384935,-92.58297900790447,-39.69835797958818
-51.052421167644624,11.027780243850025,68.82587163983793
51.789343525884306,78.51967291647347,-96.4590773382366
-38.35971259620027,-52.34956134783265,-122.77216842747157
47.69167069979821,-55.96316167268758,21.646121078398977
0.2589377127228474,-13.919454357482067,-18.9086410491551
-40.75558480225213,-45.31005562080796,-73.55550592100633
39.78697197904285,-13.760355806080435,42.509422504294236
38.925817166086404,-14.393835672494582,-90.07529514840749
-7.991657543287133,36.25857118564235,-15.08444661736235
-50.561830047462585,-42.64486892404269,-96.07020737550997
-78.93722941627883,-76.64112610089606,-165.2677391990994
-39.11229233581371,15.292711757122937,-54.518626503760586
-10.892722392707253,24.894378887422526,-157.0289502091286
-4.547474167886536,-14.633225687844257,-103.6654245736894
-121.47183052203806,26.304215148045998,-69.8395007649503
-48.26477374598502,-60.2529524636975,-135.0417929830907
4.9220135262336875,-27.679779269084154,-89.1754784153377
16.136912955419632,9.844150520554571,54.85609603569634
34.09965116131629,0.2321064277592022,-106.69011435824493
-70.28264411470948,35.096368577144894,-30.78875433989451
-33.582973884436754,50.982907773846435,-3.246460876183484
48.201137493329554,16.15495558507996,-104.68691885462252
3.3215215764243027,-109.54171276152435,-46.646806092434744
-65.70288160376069,13.66038627473258,45.74503148440206
-49.23045147226376,-10.257048047562717,-78.34273168051726
-3.350141827984121,3.2823210590186562,-33.35545825786525
-105.6887482345126,-42.923734673068886,17.218676036220444
-83.9841514099647,6.81514693047745,-90.5613445543877
24.962162297908407,-7.9759182568860645,2.103989332566208
-25.52626908259423,-16.821634676190925,50.09927184589603
2.362735983157375,18.563818795130487,114.50453314603376
-56.39519615101828,23.601388423480202,-11.895804688581176
-91.37357717399378,13.61220269012476,-77.45663290859059
-57.249021431537706,-20.871159870044696,-15.796953028256524
-30.116854724602838,-57.759757104676446,-7.146935445841763
53.23775366380464,-64.70180749726381,27.157522226288975
-5.754481362736678,41.08563827950631,33.5643150207562
-14.025098194464551,-22.081343006661648,132.0847926037129
-20.191893586544236,-36.3540244627126,-197.47657006532816
-15.178236519855524,-27.81147111679693,14.215364065123438
-58.597779200573385,-71.0759176260398,-52.96640691046445
-38.71383331380857,-16.946659450842002,12.008218042400223
-10.757245841891415,-50.88378300742351,-72.1161541995502
11.348487845626703,-56.84095208641902,-134.07344251138755
-19.77231871285454,-34.947180234443195,-9.57770291289652
-24.620800148251462,64.79996799513522,-105.20484995224142
32.73237328839294,-18.87753016202006,-73.0808543895584
-63.942172492997315,-62.41852601059034,-34.50376997504274
-9.763069182852618,-69.03683690425396,-26.54015309874716
-29.59393815709454,-80.7218652205301,15.696475534841255
-34.830285150320734,-75.21239898185979,-107.39764803995119
-0.010329062770921382,-14.812275064240946,-0.8036746100796108
-47.89948402038502,-49.114469774891845,-72.27071636375508
-32.40024726405664,-29.27181750304637,-89.2836621126039
-35.26233838092641,-81.63173003141196,-17.608221883580146
-11.579559460798784,-33.0563927632621,-92.38863142023357
-21.317395105579983,27.642614483142083,-59.21774620574216
-62.48786110063221,-37.2533988727261,-44.77290348319682
9.314394080986268,26.057119648020866,90.79939046053511
-25.58570028807084,-22.188025611367266,58.12181844187258
-57.26605184084705,-1.9931987071088884,-162.1471082727856
-68.76719916367375,-68.39985871429224,-56.28563488479017
-13.850577067434337,-2.8903507931645294,47.07574929593257
-23.271664292844314,-35.03770197714012,-111.16830877563137
-19.432329242493967,-55.23814089588463,-68.83354135892074
-27.880008162011983,-35.621384018701185,-79.26863893211046
-15.900894458960806,-49.860221605524416,-5.45232847798475
29.24883849014862,-32.81052073977909,-17.841981748061627
-24.535097499809954,85.76659593262488,-29.209108827939286
-4.733749253834542,0.2682112729874966,-57.86352140815035
8.284074599311538,-54.479062809089115,-61.51350834491622
42.63296826838573,-76.88161686005269,-86.08872523927548
-1.83880414871091,2.2492958840970836,-105.63472272433445
-19.502880637375714,-9.596715305082144,-106.64642362308476
-3.3385978706629906,72.84938101811902,-103.53488768024599
-22.153847152367785,-61.04164090215798,23.258539255005914
12.52989164563737,-93.61227307809602,-81.1215556902693
-4.122958596210744,19.856935996511197,-41.87490031626584
18.364107224427208,-18.660056010159106,71.0881014086918
9.318052500727738,-39.73208746244734,-14.036475729682376
-23.26661890818405,37.60612914745609,28.084748898911783
46.10383684070756,-86.13409921602677,-24.467738488778537
12.399947752236471,-25.154556621046098,109.78918669507641
-29.122859885388273,-21.827438833556496,-62.26620104069233
-52.01114372768109,4.9306654171952005,39.498051078426755
70.916649646617,23.393425262167405,-28.112931183736716
-37.10355333469784,13.651737059795714,-83.4803424690991
-20.550785731773875,-51.583908767943186,-82.11513836237967
-6.1207670406389845,-69.51643943796071,-93.08808682610758
-32.2937791620471,27.670194398702996,-126.31578455931766
15.663907428515387,-37.511538553037234,-0.0369456844373417
37.993752023307714,-44.886112943359535,-43.461356118387194
-98.83596651901146,-20.363277810160188,-144.79804036776048
40.63297140195299,-34.68895280436829,-51.399991369403466
56.13541365799138,64.58977344898224,64.35819328428182
15.292543590779168,-41.62826716240538,-106.62136426525208
-16.162321312243407,-47.01785763739993,-165.8324916988906
6.197413073828507,22.006594348532417,-71.56897059693102
-35.185370123943784,-5.58923138150919,-27.249009620058352
-48.46436067130312,21.015421204202454,-89.37446298547741
-67.28404697756068,-30.543206127719518,46.72037429724051
14.443410114270193,-52.57535975287079,-14.977853417855624
-57.103766415065785,44.10692620473685,-96.24779705003242
-23.070269443867577,-40.643242791699194,65.51907817327289
-18.59041683839502,15.896560245099785,30.02452593519658
-25.360321677140757,-26.187254403489543,42.491872807894055
24.278722315372683,-8.350356299454392,-96.48942051995552
-25.546571867968947,-25.352797773005417,2.7523748322870105
-32.24376264523758,20.901741198689543,10.661440690874933
-22.306035325154436,-52.30377296872108,17.737928898016186
-81.40864213578067,-5.554549562962743,97.67670247182818
44.45927359163164,-14.903617955755452,102.71904788142203
25.5795443538021,2.693068093748874,-37.302253192648664
9.502361854439396,-41.69160737399521,-21.72076853161417
2.634204943761162,-24.91627902465303,-21.935987434296884
-63.55192734995994,-80.37676090977452,-89.57720699269485
-58.46695576099653,26.296751003318597,25.97414691220912
-31.511911289708458,3.5165819985944466,-61.813327800323236
-51.10111976083637,22.395139687992284,1.689917514386046
-30.374614753374424,46.66130203413738,-9.63837773902263
-57.32380950065051,-6.962871781204695,-115.66184323339729
-71.17458546259058,-41.53650185488754,-101.86109760482262
-13.783203753091765,-23.405261297422225,-2.528881636760758
-50.43979038389052,22.93724261934006,-66.82209501308222
-72.21639905201154,-48.94551133853944,-61.73370883688551
-13.853450172719135,-99.20382710464337,-32.022414578497134
7.3330103648876666,-27.549626349994902,-110.84039337991547
-17.942836849675636,-0.7778718930819828,-67.47284654771812
10.253471114062048,-13.607920926955217,19.973303450921627
23.3269439816129,-13.531771159028754,-30.869997805051902
34.511958546159974,-50.41013736668063,-25.05169050848821
53.29552255218296,18.027179992765753,-38.43163845446474
-94.27121767670886,-14.06108560867602,-19.484777660652828
24.655117156979088,-36.60299476788256,-14.524579621373274
-40.167339648285164,63.691588400666745,26.697614676473464
3.5818737521061728,-39.37628748177707,40.82961171980314
-1.5653866249826116,12.805910969449513,118.41042732776805
-44.57595464583714,-83.54857117725507,4.007308055570789
-109.44162346933729,2.5694432156989535,-34.40433830513457
-13.65557197860779,-70.13611668822213,-82.25897605808606
-70.16121205393053,27.3922336047183,-119.08399681328858
10.603383640696158,-11.70687107285427,-150.65027643749482
-28.83138103248465,-27.813841410031056,-93.26413962749126
-4.334948677772573,-13.256414162133133,-76.52479433360972
-34.7432580875561,-52.50333148400796,-108.38077845212831
-43.850569905700354,-36.10503938581565,8.563150758019098
-25.96945571061073,61.691031608268645,-135.0462424400801
15.913764392906288,18.956419332349967,15.534061053099357
27.616274356849814,34.630255255237486,-46.47680417339479
47.64124827698333,24.463610499409356,-42.141627617384636
-53.859339667995876,-78.60929783885437,-32.94557925642306
-53.06332556574506,-117.45268677263928,35.379228589053156
-34.67044746879495,-15.94075790204782,3.4439350492738257
-46.30144302035569,19.76600299252162,-109.96443149732283
-55.57018742373952,-2.2265094070859988,-31.714127140419027
20.921896445777683,-13.310410658944427,-56.93502833922922
-60.619398257206925,-34.786092385883265,-76.29361693573915
-19.89681772366109,-104.61605382730482,-133.68045825103667
-34.85766445914307,-60.88447478324733,-39.616092432518194
-44.53790163784042,-5.107545310982003,48.25484804131895
40.565728312207185,-28.608812829374468,-34.932773074159506
-26.65743935496917,-12.528611037444872,2.869361759855728
-11.579850984885002,-59.72233082063884,-3.156243610549666
-58.94620481139343,-24.667676691653295,-184.50715048484204
7.9227386901035,-51.771520080340125,35.58895697861864
-39.065529650213314,-28.15150994921436,-12.79427116769235
-6.69442668056729,-40.51178715717859,13.086638621601494
-70.64741537817429,-80.94778051622849,-171.46851539498638
-42.101603990364744,-29.474613347816266,-174.11983532959542
-71.40486519647324,55.23159465821696,-60.12014313975823
-52.34742425082819,-78.05909310972135,17.26891267649055
-43.56079363166708,-18.743474488628934,73.88130466498225
32.53446220741335,-34.500718586564474,0.4173593202000987
21.335602419568467,-135.4667849876348,-26.24575285155924
-3.4139610617141827,-37.25502640131962,-155.13941508099907
26.45079153988766,-31.22523513459405,-138.12290839579785
10.60903729314337,56.116908506507144,-107.43344610691534
-22.870282584662498,-0.11712935227400578,-45.526202111168786
-3.4331535582634523,-17.07373014598845,-54.99868919050859
-62.724126405105935,21.137185436810967,-201.71047466576152
-74.50420352827322,5.486172538426889,-210.27747273629393
79.14566182773316,-62.69433439106554,-189.72615555808486
-20.08841021746587,-94.15110204657738,-107.85710488643407
-42.31634615028767,23.031221494347108,44.715495090116036
-81.72715199174009,-90.02618050115613,-60.72239658737122
32.13449178186405,-53.143004275376036,26.375883855285522
-18.73817869435103,-19.28862654480654,21.39586471336802
-17.734476701963228,-50.51532002996322,-115.10268747917907
-15.04388745080737,-12.081785758573323,168.1917622117373
-11.679960394543421,-15.086380372983617,-32.14150517764902
22.349868352248137,-42.82421591213159,-79.91813559548237
-2.5204909384283596,-90.4528620436865,-190.0194587983116
-41.19494397881128,12.354415151876253,33.291242704761814
2.6336977736843608,-10.655484045562606,-133.3369946661188
-9.38453980690695,8.686709372298331,-52.36387961628127
-13.546899356109048,-78.34441075234372,199.12333877448933
-1.7841841905319598,-37.111084885331515,-189.34101028048775
-48.990563538552244,-9.980379706114011,-48.63810599487853
-49.26085354372904,60.211487195202324,-7.569107920349779
-37.02595328092557,-65.45732140548121,-150.86198075447484
19.43372605461795,11.750473441200594,-29.50221457754802
-24.623950233209165,-0.4181717775570526,-50.845754288252714
-48.77080406030798,-47.36537676627687,-129.8958320345712
50.20896545702597,50.68982306721081,-66.37996513830578
-41.39724733399987,13.910128864043166,-43.69340821936277
-37.44976899000655,-46.04373563295994,-130.6233296770015
4.114972056853851,-15.788680099720448,23.015954522465734
-81.1853628613899,-38.27995072281631,-127.48149622672562
-61.739758502528666,34.007020200487126,19.50047537318917
-1.13624335821698,-17.38622290495201,135.7499988550056
-22.24247498293147,28.729492533489143,94.09380705870026
-11.848298363132804,-24.283118854918648,-41.584622238082815
-64.24562920256506,-38.10788434214919,-35.02140275528317
-55.252648528455886,-117.65973358553161,53.24071477327976
13.894135071261942,13.947560137765784,-58.23492916017524
-1.9847795596565767,-63.77750558542161,26.349500396424432
-1.9244559026949446,15.07319558861262,117.3769120009542
10.82595388480318,-99.40939336344964,198.48394517039128
-9.918250765992656,-62.45138349203315,-24.089842765285887
18.78503583688483,-66.92461611996085,-72.32242168293263
-69.09520792548511,-9.846909962945851,105.20549313258843
-15.779275507087043,-25.52402588547225,87.80039604977729
-82.59305283144948,-11.593532318712974,-38.643044252522614
-77.89076284765875,-111.15276980093257,122.8206592881179
-19.591493246685857,-54.23958192510756,-49.89416252327483
-25.92133858387836,29.40050712070631,-55.609840059225036
-15.436476077514671,20.60258523558352,-134.39183109723052
54.56270628103559,22.518281078147922,-15.402933021872776
24.376713914955033,-51.29141570277008,-58.11294336416675
2.637844404574075,-18.52847001302916,-148.65962608884388
-53.233898494536206,18.71222240336745,-23.05803728008753
-58.97152328743318,-31.748925500068008,-190.70446165020005
-15.107174819139555,-12.169084813950626,-59.598307673052624
-28.29210543896494,-8.218044294261109,-80.17281729001184
16.108297771992845,49.47000765175267,-26.0876450041385
-36.029033756760725,17.043235983724514,-190.1311092387434
6.364679748579004,-53.51133800783817,-86.70586861245147
-15.030344129764991,-33.037898106370434,54.59185145871919
59.30738057621335,8.360821175840329,-200.46343391003154
18.30477921940841,-39.064778659290724,-6.980533670506922
18.397335095725985,-26.37365342249296,-133.66978581900187
-41.79139875651621,67.15868440661262,-113.86145845942488
-65.89343489223722,27.89969176141463,86.50688046413953
-30.51662780201805,-79.33346519281685,-10.542815575912222
-2.624310631389612,38.92832098624766,68.21330151581398
83.78801477195543,-18.325006311568853,-222.33253627311052
-49.06202940503944,-37.30636194907495,-28.2604925764295
-101.15529316735326,-40.29689645048502,-182.54092726859065
-33.983827694439626,-5.652461732734205,135.06515651106668
145.59394259915308,26.13680406988206,-89.17306065856147
57.266531534226374,-67.75296868373815,68.98216539887763
30.380074757145465,4.797244464352289,-48.63006228167498
42.619434251490304,-57.79535151461816,100.0315987653529
5.745411971434336,-40.67573538952348,-323.2015853873164
45.87354623169689,-59.07191479236305,85.48993601965464
-21.287704704610622,-0.7722573170769174,162.09685261422064
41.24003089792513,-59.43166262180845,157.82141996188204
-81.32740099411932,-23.91325881846613,-44.382358747756534
4.101447734734165,-93.01389001747953,-43.249594711621334
0.8598677633590022,-17.23422732214347,-122.60114295877679
56.0117310224997,-29.279305095938167,-76.62665022123937
-9.507540708140233,-46.15311136346201,6.148912741887862
-58.00471367149403,-89.99552327140287,118.27435894249274
-28.057220452305025,-98.01151717945521,-74.6062833088586
6.346182988853926,-5.443478218114111,-62.320050827863675
-28.254983443713474,4.068930160949002,-70.06863678111833
-7.638895980530069,-47.27437088304188,-65.40440459178924
38.967672240252114,-33.581090403280136,-116.91900767800001
-14.170283695763365,-41.76427415817355,-32.783362483771114
-53.18689302277498,43.40382192784987,-141.27915338530028
-29.9686218914319,27.159410271382853,-156.18360662205237
-3.848564101393187,-0.013572455211953383,-113.907912751771
-48.251751885412475,-22.149781131980884,-121.17155723842053
-30.521276365452607,90.20064618518708,26.944488925162204
-5.319722533773517,-26.685237753628638,-24.347798839132675
-77.9275081212288,-30.269453890859733,-30.759045603787335
3.82283195193574,20.344558739730196,-7.478653431370795
-18.605534610085265,65.49785721396192,-56.498948874938534
17.34829596568315,-26.632947044721156,-142.34035727593837
29.161989645009598,-31.550685896101854,-72.3575587154637
-41.5010966755424,-23.1693562335565,-7.055571725360885
-43.228930346214774,57.44973784554426,23.86869605911439
-73.54182898051528,-11.427709029411597,50.8118842445697
-51.01491900153333,-11.142975227861417,-124.3499550209012
-1.0134013939107476,-29.558659795747772,97.82219607614803
7.54570828599315,98.55201587081439,63.61106591329316
-11.034812890988878,-17.4263147620173,27.598380973746913
-120.05521362306526,0.1320360940746923,-165.27597529775184
35.049575770896425,6.022453284585559,66.80783988743407
-81.1765806689572,-8.21382396989632,-96.06640540156064
42.996902439077516,50.77018454354621,33.809282019463
35.97256050990161,1.5557659407053706,-123.65412810587272
15.22044453056391,-57.6625365636234,-120.05526346061598
-41.93872897744942,16.470821428118036,-48.994465460977125
-37.29337937767824,2.0628043315096534,-21.848914690248577
-33.68518585123992,-31.262123024264206,13.152614853070986
-16.623101254032008,-12.41217578192877,-1.4707118098382992
11.783210236877643,-58.98659400242054,29.304486065378967
-17.28104055465191,-70.74113804432565,28.431423935333882
20.9053395884941,-41.66543710690125,-59.62442944265035
-9.641334412908428,-55.80004502358291,25.007972616656815
0.9976210257796083,-30.049855222146206,-34.62957647221362
-44.768695986154185,-51.16570794534908,-88.21564292673051
-53.571157140609955,-82.94314172588915,-137.92471756630434
-40.24408671538606,4.369209067242551,-199.8214747637637
-25.065571601162862,-50.430380718872236,-120.40617247964705
1.6782126164559976,-70.38309491575782,-93.65835959470685
1.806561553548235,-3.785347307374977,14.549027644087857
-18.215661501414928,-3.1227174011878915,101.99666821540598
-59.79109997609749,-3.7669798880135303,129.92439006543663
-76.70033399247853,0.9832637594318356,-10.252486037440562
-43.16872841278943,-39.366454597038135,-37.730875159463515
32.6602535096294,11.75974012975194,-110.78485465328343
5.7430712423320465,-47.88939618708357,-96.38867883682508
-83.69959757925074,47.70881446613636,-99.36632647678604
34.74008981281713,-22.01509052311994,-26.139149341772317
14.447933865889205,53.226461579729076,-2.354064941122502
40.09899160240341,-1.1580988465522637,-183.47470508627922
-23.32884090423509,-14.772525715991664,-130.2978503190911
10.442472717121358,-25.659308671785794,104.97626424894145
-11.986845911916609,-29.79278038214591,-17.98318984166556
-56.66478950675736,63.81053916737798,-86.63621216585625
-69.0699655158574,3.4187612831855994,-57.10414297721958
-40.5246935787636,-26.82478035920016,-80.52421584012768
-79.5890676763554,31.92127136175923,-63.23718764871087
16.118189369282092,-47.71146028502601,-32.20548174875809
-77.55142475021164,-11.554760663964146,-61.13580237383697
-69.0997722613474,-5.419942563395118,-63.5575785493786
-27.608273873540625,-48.886475158704414,-65.09460960266867
-18.432713974453662,-18.504090220992744,-81.80526905244494
-53.78056423989046,-6.379102127023131,-159.77814129272988
9.181046825380879,-17.526848329949495,24.21684039174974
-24.926047969634585,-67.69212036143587,-29.43944431987095
-34.41988949187444,13.625257970477534,-57.44101932865228
-24.01953455176491,-48.3438036538957,-94.01018100410887
-19.19610849275554,-44.54065041401162,-124.27169839592808
-19.13061506196786,-45.35241528887042,-130.807397649655
-20.157148382996922,5.939940752965811,-5.06721455835671
-45.90931901163242,-5.9019046715190875,-114.78365394067387
-51.85254708450384,-57.515323643117135,26.982299081149847
-31.931079201378846,-36.19825929109956,23.72625864999256
-29.99364415588237,-25.693947994829657,37.47814362751387
-27.637891643107046,-32.769308348307796,-2.7170118532803116
-11.391401746763908,-70.91420121082652,16.551226808005417
-36.031836984510605,9.537266201331068,18.789023758825643
-42.598979177977625,-29.56172398578925,-21.87435692167423
-29.410691197403665,-2.7998769970208777,-14.482660428007684
-21.376558195636317,-30.12690639922524,-42.58284799944832
-38.795058449880244,-54.30021333105283,-111.21734150551478
17.519958718029493,56.60004510786908,-86.99839108899423
-41.16450623416222,45.010068324963996,-38.84984920265738
-24.816622075002513,3.1814930910942927,-55.514629859996155
-81.31412345846053,-20.79497452887724,-58.29143739071754
-7.944438536645253,20.332645984231632,-45.78371372553499
-27.736720801397887,-19.992752161207054,-102.33061707764062
-58.246241352442844,13.59705002806934,-51.183552773429895
44.39566989701137,-56.05067809487804,51.302029810982944
-19.16974606517503,35.484921347657654,-32.975930804665815
25.343069374356197,-41.374097092426624,-31.28117080130523
-51.2767090234906,-15.041405087102957,-54.62655981233192
-1.7727585839917417,-7.703669617627371,30.947278811192575
-54.916897070369885,-23.903508377646197,-237.67518461916208
94.17033276443269,-24.567148296698974,8.217500961321065
38.31476751172737,-92.58402903344572,177.7351567808394
-12.528391384213032,17.84891544764291,-8.208908974212509
-15.035758333839468,-15.98806816537104,-14.729070250640206
-37.546907623499976,43.58278243028398,-5.6802582164689
-9.619759478595817,2.19505994889332,39.945872902336376
-110.22851284084089,-7.60855528052563,-192.70943497539838
-56.64386076103692,-18.70186413685395,-98.35465093776972
-4.516805223303148,-42.25614250814445,-215.02563334550297
-106.04516331685852,-14.75430683931145,-86.99546245698417
39.22036290879327,-58.42357812285188,48.512223450173224
-130.14800499456234,8.282497179264045,-119.54686349995856
-4.432900228091336,-5.351552225764731,49.27946368447081
-25.840287086251323,12.843151365793453,71.96955889277731
0.8012290370000059,-66.15014536714301,-11.092184763334544
-61.01570896487986,-64.03623794766422,-37.59859727801066
-0.6833893101459338,-25.288847225703098,-77.43702186032323
-35.32275373307164,-73.32036391527367,-62.38200017413671
-41.933736893753995,30.12739190724129,11.146200022746868
-24.35027530553311,56.813626917894,52.261998460032274
2.503927584526373,-30.78315832231073,104.57575272465948
12.204865105389302,17.569138903317018,-152.24129278630588
-20.249583404205207,-29.285010106383716,-46.207084951266964
-4.357191308764465,36.822945252731884,-86.91712791145775
-2.8785917004825166,-58.22236179069176,25.19273229247574
-55.33843704625052,-33.45860657441977,-90.0591349401451
-91.05939466354401,-19.404352344805048,-59.30530388356722
-16.551071304706227,-104.50345434051344,36.86280009257135
-16.205913548686567,-47.117124416149835,-77.72248986024721
-16.11955374144846,-82.70719479751878,-111.3401227047101
-60.644494256449384,-89.33863235881785,-53.881513432168134
-34.83005426664793,1.1595887084871173,-42.020481337865824
28.08073799356847,-100.09213207410868,10.420391915787093
47.837280902386425,3.1904160000219797,-29.052806551113612
-9.213290008384973,-123.42307774943963,-113.65660702384119
19.26938173248449,63.353539200135174,-9.280195083737564
-97.74645509044383,-47.924438039346384,41.80298147404622
-30.988859668466116,-87.91161301461844,-143.19033786784325
-55.21912711818575,-32.14651382557166,-58.597303096527305
-46.36890425545816,-31.744549585845526,-38.500734488733755
-16.217047763423132,-16.267890818964084,44.76242389322999
-89.58233496210853,67.10865418678881,-76.83197682987864
-45.58216198169994,66.88533123293405,-60.66544928581834
15.776547514832046,-35.70953187998457,-117.68605575576086
-92.43941276683428,-73.15336120188948,-85.85881189459221
-52.21780396556237,-38.76884789444799,-130.97739415442186
-20.100963744031333,1.825921922836745,55.11923199522741
-7.263744250697764,40.743929479011996,-13.584109902101574
-4.598589602807337,-80.81235449198772,45.796840647086015
-21.538729745073,-53.03383976778839,-87.28236510550192
-7.847532886127022,-11.458034188441177,36.912644495303724
0.35998674406533127,-8.314764284629936,-20.00433101284258
-70.31268049876118,-5.320890573463625,-106.00832966446843
-31.84945473840841,13.190078688034774,-57.69776431564934
24.479795760731157,62.50183170902659,-94.8134969866876
-7.0591868874873,-11.96078004045243,-176.631818398604
63.75520300658165,-5.505774241617246,-107.93887183528864
-54.66561271833276,-7.156151695067489,96.92726518296905
6.6731333813338765,-18.58526709555107,-96.80426867093558
-5.071713716069059,-79.85871107141668,-34.556102698619206
70.38147459636868,-66.60459815382323,52.17349414548741
-44.07506548935807,-0.9806227236598914,-87.51058001917355
-22.428318126787342,27.268538714063,-9.672296313767397
-67.2603279654018,-64.36895122445432,-91.98759908635881
-33.40924417688006,10.494910201110336,-51.78662690096919
-46.792272022891154,-103.445796454797,-37.302744130537974
27.325375939721077,40.44808334062652,0.15870616749268862
6.246949885053979,-48.91506039063394,-9.309787469240831
-40.92201769229,-65.74720008605703,-97.95224183519178
35.54973657114128,-26.076704136234405,54.678866136373244
53.95863872900263,-5.111448938996881,-7.677105070382105
7.436398094802229,-82.96289864384485,-53.4965348030659
-5.184253949162862,-21.855438328036122,-103.93020773344153
-58.39801562697554,2.4628632221402853,-84.09433420829612
10.426627687161172,-21.692382002317842,-1.5110793254548796
11.847746925233263,-63.885175696596484,9.700809327829148
45.74816888655104,-93.34550820230731,24.19605315724135
9.70790828482112,-11.286605124834159,-54.86431077002256
-42.3591643689616,41.76373612795082,4.71547632428161
-43.826356190288315,81.52961685391206,-6.612906927374411
-34.41119277526637,-2.763682764800702,-135.97755695586443
-72.61398525977093,-20.733720000712648,-32.12351719424814
10.6540738011136,-0.3367463680365006,47.49955431773179
22.70512557200484,48.672151180692666,-220.72985853474376
-21.98964196691854,-10.422600037471405,-110.72058193151472
-68.41590529991689,6.214603772184375,-61.7007901597844
-28.23051466635224,-34.70125216260882,-99.21554539843827
-32.56996492166214,-2.179689890456597,-115.83841445830963
3.6755986963030765,-22.990727007316416,59.51593641604539
-49.1900765769115,-60.04726341791826,24.925843228786505
-5.480865946402959,-43.936592894946834,9.135322687728753
-4.209410974713375,27.32945015539059,-14.221742825982219
-6.861132899865758,-24.851080953326566,-57.25856919505951
-2.871309988378087,-33.635077635785635,63.84373135631165
-51.22732868716832,-89.79364854816042,-84.89152179620405
33.66751347052012,-56.054440030359984,7.497795925522688
44.74019861157436,8.291113458723729,-137.09815721104275
-34.00251538350869,16.262705042718387,-30.266167468723935
32.778791672076785,-8.57488199352169,-37.29836014861488
-49.989537873658094,12.926140852219362,-93.06257563955931
-5.4864780555657156,7.0752334541999105,-137.57175001906552
30.142517232168593,28.55531059225443,49.602725361857395
39.09122725557988,-1.2796024726044237,-0.022445222488578054
-19.936913481900472,50.1427008514237,-230.07374945681477
-26.573455907124547,35.235739084184246,-3.15678977279952
-17.915997947041976,-81.60308227375515,-113.83522799898655
-33.46276086781735,-18.556865807633393,-193.21421628837328
51.153780542817756,5.833184234450215,80.26796762723934
-25.512778619100654,-15.281116420042567,-81.7567842500462
-6.243174066982668,-19.937459391858063,-144.51257087170652
-53.28588557455599,92.9416020797311,-43.84455443445545
-29.406165833950247,-48.956794271265096,-57.30151930946936
-69.67024413161852,42.27091814589123,-59.40791306358663
-79.0801214135357,-11.465532118379548,56.84573933645555
23.964817247124586,-62.18148476834766,39.35775895390147
51.63483352237236,34.784029628830304,-77.5932874742069
-3.438988641664878,-72.73101129255943,-50.49031280072801
6.460283174692574,-96.78920596451232,31.626170958038614
-8.984823428088662,-24.842379205923447,-64.4429745435778
80.66933031840954,-52.45031474498486,-139.2570719541839
26.61827068012434,-10.238232296642227,-28.598133434107858
-43.33389056377279,24.62292570103923,67.45876501526844
5.15395965370217,-25.245642319550402,-64.44785056963067
-85.4078129077309,12.115194338706232,-71.95989076558574
14.67578957113912,-39.34785406770458,-148.29590640356528
-11.457767276558547,-35.70843596365501,-66.94731457272528
-14.402014129311702,-2.7495501086550895,-111.56620130741211
-40.7476659960491,22.15349885366207,-51.050747747040525
16.530997988191906,-58.18843259801438,-56.68003087548303
-27.301772969517536,6.876721497637096,-55.39400373768807
33.391061790983834,33.72530864010014,-0.7245493878751006
-54.28258069371797,-19.205881642012077,-61.8414046127422
-4.5711719187869715,6.682397331689934,-81.91559453725405
-28.721892949900035,30.443150599100655,93.58023172366197
50.79255865644416,-19.63693601865191,-78.89998122600053
-55.84939701853534,5.118846771692006,-10.157100525467719
-15.951657795643136,25.758008661432896,8.320006633098984
31.51115433718354,-54.81778826195438,-28.53641094675745
22.210230820688864,-2.7732571202602223,27.506388027754568
-90.94983599441188,-44.75818247606681,84.02728443433078
-19.111035060020317,-42.82096624817983,-42.73898518990589
-40.64043229378385,-24.778623098773032,27.698654227160617
-54.89051230019073,-53.49790367769013,36.6015386143271
-56.255856106160586,-5.651191786387857,-107.13913258646497
32.372123560910595,-49.13874563008285,-18.882600800246575
-59.29651223261784,4.505013368532218,57.52614003664743
-9.876471204388134,-38.845992473118756,-28.971211564245138
18.64694614289551,3.6879497977244746,-6.026383889360972
31.694772808269235,17.804495945029522,32.857913531171775
-50.840869164536784,-37.513972992103135,-219.35892385613397
28.240768227096062,35.10330182036118,-55.38841459622279
8.641837903225756,-65.26805204590329,-195.41103999237322
-25.988540952782724,-31.649193573453857,-93.11127424835344
-17.571952188468874,64.10305977080088,-99.75702776230239
18.024833521435696,-43.5807465243968,-96.17363081765254
-29.46115704201327,-41.66764806738165,-123.50836030591616
-47.90077252966864,-37.61287033715122,7.721046563032928
-82.86893921575452,7.4270510069086555,8.50143978300953
-96.62577025422426,-77.2564958074828,-60.18192847263106
9.203183220926938,-43.67751230560906,63.560913957369664
48.6178310854328,-62.11984485316823,70.48341304716448
-15.982283081307079,5.335841737462378,-38.991562054912
-11.183665186582678,-5.218176405462124,-66.02418075596127
-29.564932214005786,39.87833416407959,-0.7595493770362651
19.84500722816926,-56.090328183772456,-143.93528843952026
5.255956388997166,6.1350430239330365,151.91141525316397
-36.54108204888687,-73.82609121378769,-193.7975642505145
-32.42994979900813,-101.8248293851035,-87.14913475507498
-64.24063980540022,26.925784815496037,20.34533208237506
-23.296544574955128,-71.30368974767796,-82.97078376539426
-40.51732488877121,-9.386734749311296,-3.753898558919552
-60.74013022298246,-58.464190917979,34.601273305254836
-48.24287377839022,-40.41180024865395,-3.7071497157564366
-47.918930947242664,-13.872392550976624,74.979970325313
-70.71390775912306,-80.37257307264532,20.724212677264205
14.61115527578508,-6.123300831681011,-48.03012120110311
-1.713864400736739,-61.650149078026004,21.140941749187725
10.125744195977543,-32.27221313940535,-109.95691144391769
55.39377430809279,-47.76442633059969,-98.49803702648774
-97.59969278968177,-27.39757715338901,-75.3202459135951
-39.864362536912836,-41.06137835600943,81.41150127745232
-6.411775204005,-24.07318182329882,-10.716507404818802
-28.983093146621698,-36.63967758473203,119.74424290344206
-13.097788911164551,22.4400458190956,82.17611181785699
-80.43832456517308,-59.86207865856131,-107.11720353981723
23.096643455588747,38.187351043621625,-76.39528068454
-18.19079596736915,-10.25383772439293,-18.08254685924
34.61061266069528,-3.828092243465708,-3.5393642735193893
-33.289571046243324,94.72198508312559,-39.78696741325736
-11.045987680529171,22.331345605505604,-0.5326110141220326
-65.48504148537862,-31.228723759786263,-55.61780214241281
-55.63952735470459,-26.865305176333006,159.64827051238393
-17.69293213358319,46.76353079098013,-105.04703454030243
-0.8715147039242623,-48.462566083950776,-107.0566471195502
14.572295294412775,-61.943015220700055,-95.9796429644276
-10.958291249437478,-24.553858110723134,65.41028975838417
-60.867310105270214,-9.56655108836156,64.01005037719068
-3.4924370485160736,3.0530156582416943,-69.0077257843386
15.17311500563438,-16.05447076710762,-48.24362394568878
-100.54265208832157,-94.89758020691748,-41.52785678522801
3.1767544221562183,-49.14301107218174,-84.51264533801262
1.5953368386991116,-12.484103284611288,-18.93554802488245
-89.60280915959791,-69.34284846191848,37.87790022748871
-68.29614108568155,0.6508465448722731,-1.6383273226611408
18.70305829590366,-22.494153993446236,-173.6480357951393
-77.6754822921306,-20.121182537485314,-87.20697836648927
-18.298869444858024,-44.95749845755982,83.90233985266119
-31.923952693453295,-14.805668822681998,-115.5634192459179
-33.08515731927719,33.4624032700529,13.78068182163014
-58.07431989155527,-68.44732894328786,-87.19556604706065
-7.976479557663275,-24.873983553724003,-99.66620199351595
-18.832781731611533,-21.87464107440893,-164.2737573390616
-11.260657137162797,18.5378411713899,61.241290390063895
-66.29034126217198,54.607542926717684,-102.01544229211038
-38.5621858550134,-13.91988041785486,-74.02692370448352
33.246445445807105,3.6802120269916507,2.927333046384362
-29.82915546457566,-101.90193352917247,-178.42116046447669
-28.794408483460288,-73.71801695389912,-70.21821766583723
-69.99747328436504,-62.6502383181559,-113.80516067529514
-35.8692011677327,-5.503974961388241,-100.58295362039132
-1.9431781184691168,20.07592557280301,11.254354763784391
-60.177115126631904,-3.8213611572136372,-104.99671881742222
26.461169890222926,-31.304862880243295,-52.95398990361947
-160.4227267284131,7.33693482213884,-92.27998544818229
-30.77442673856075,3.7824495139140843,-83.16896195274018
-6.487785734291034,-49.49863705925898,-102.01177781936835
10.643336783594414,29.164005892982658,60.235630349424696
-48.5783041033364,-62.52894889234248,-54.679342720328435
-8.263334963409921,49.29920939602536,-114.30870817090394
-2.1712338219437974,-70.62759957845908,-23.065255677404487
-53.04602358471613,68.11441523873262,-59.59769446029446
-59.513706156526766,-45.93914820503276,129.15492428541003
-21.934705942333068,2.2526464827147485,5.941612538202783
-13.814069125198916,-39.404577562665935,-45.161467195554515
11.240636518372536,-40.458707364747916,-30.246574246731818
3.5387071417491534,-6.6160981330477355,-64.11490210488836
19.987858560160653,-100.1556616353345,45.27343710973581
-22.99561718498804,-46.733233693911714,98.30313961575544
9.90378263129928,31.203182855312917,42.38820839095736
