-47.778024374248496,-98.83606907943124,0.18150090754134507
25.349762892458173,-317.2852534780187,0.1925765787852451
-2.771881503761769,138.35622367830487,0.22568665059540438
-6.536540542327299,75.25107877192112,0.07814348151703521
11.060490743997365,-68.41887134107638,0.1973361430771233
-47.22693320191382,162.85138739705206,0.19310658079424972
-12.959171956084603,35.87106474250665,0.23088702026376526
7.5886575569506,148.61451032224244,0.11156817600286643
0.09294982652726096,-240.38137242217724,0.17315715711035468
-2.5070797429198297,100.87237740599284,0.15220942016098218
-6.3722655428362085,65.23799045889908,0.10565117333359667
-15.316041150235177,146.16926718757358,0.31525501728861294
-10.45840625426682,-294.8581657113117,0.19847498461314764
42.31927834968343,177.5722195652022,0.16795925816954824
7.69223600473058,240.95325767319378,0.257777969868287
1.942984882939991,-142.35402857964777,0.09793975858605652
-23.512928649314112,527.6188219547214,0.16764156168346178
22.91705784320144,-7.505326876341638,0.11865872834311857
-1.065386767988274,-117.03315646936649,0.26074361342517055
-6.136891696223646,578.0111491818543,0.2037294736967472
23.839300965930246,-26.829806270364493,0.21502591206661642
-6.3181726144577155,-287.0164494163817,0.21044070231485484
-20.56423687400663,207.16021730350872,0.19032874223256974
0.7860344293035408,-337.44048383554133,0.2219509932991549
13.589845403565297,66.1395345805297,0.25413786243303216
-1.917385515993764,200.61832008585347,0.19569682190609766
-2.3912839133420634,-155.90700190334996,0.25482138305964874
-13.95343189580877,-114.22924699249836,0.21035435720880552
2.0423864535148213,83.23406188690909,0.13569964061569942
-24.975429735217787,-4.416826255890141,0.09331231296747036
4.467972883099327,-231.66145857293915,0.22775644423357116
19.611621236349517,45.97204211419183,0.2325138796794816
-4.45874030429378,55.82214453511117,0.15003818409920275
-17.873592538542127,234.85763173124937,0.21707722934109927
29.441036794747447,138.9169300180801,0.24561446972232798
20.332693650508325,-434.4969779509275,0.24408498862350841
7.096509983157072,125.37309881628609,0.20877686681233426
33.399918053747534,-239.10672023867033,0.27585595219767967
-24.359303849287038,-87.1107356639945,0.23907551660034185
-13.812637037057991,62.13351558840281,0.22457319247757845
-22.279613599927274,521.2203922459588,0.20818220680981503
9.36893211173908,284.22636226681095,0.28529304378509673
2.714309826675951,-177.84990888707688,0.17924963039204905
-22.43811095108716,234.5763645793697,0.21421964872970636
-7.270400182198937,351.9876792917983,0.19206677489452254
-29.64805294150018,-241.36383250623928,0.2111391290641796
16.78720479440726,-106.79779322398613,0.22582730866210732
-24.05757972504221,7.312246526236449,0.11733662705700072
-14.600605974657284,52.61098686699209,0.20554573053199945
40.53434961432116,-275.12694104512485,0.10686954311719193
-25.855340749713406,345.70629186219503,0.16508299948391822
41.52946992388763,361.90069717813276,0.209810758544219
14.711391349891791,3.0944266387874437,0.21953117827248336
-15.340422273499053,41.15500342168565,0.13628278419323064
-46.26391201971572,487.1515581302301,0.22245921837653038
-34.18785744220144,88.13811681910747,0.2492518873767704
40.70956451220498,-17.024603259051414,0.20203934058953413
-11.63546102769878,-3.4143620837234154,0.2162595825295266
11.806242657411694,-302.63099214621366,0.2125827394873261
-23.596528026584103,252.71819770413538,0.1651689375516296
15.869243512132664,170.20148321446587,0.17733445644609777
37.00584444863915,390.4272506854782,0.21984063917464128
4.113229730931786,109.03797334874896,0.17230423832239355
-4.354747499468664,396.6975949542786,0.2112634252775611
-23.923423648056428,158.02132658909778,0.2054007157782974
31.7549762601805,185.19285914475375,0.11190351369055293
-12.235405208955154,-294.0224259476878,0.24195252146043195
-21.618261511927393,-116.22927388098631,0.1501696952149196
-24.01579831107775,-148.92982059713395,0.18303771857803067
-27.53046091271509,-202.2403034262419,0.2072734792496076
-24.701392115002644,-234.3090495942592,0.21544409657632616
-17.73086303112676,162.40713387062084,0.23852049545273096
-16.15920170786228,223.67786175811705,0.1369910708752356
-43.52417578175671,-167.1271876264962,0.19337860551585967
6.071044309699387,-295.2019405341606,0.2519121483555818
1.1630750820646274,60.0427972916749,0.2840851774434754
6.360789426869925,233.74197269641556,0.14286499319425644
-5.880819297524976,193.40330943730518,0.14260244041781023
12.447157264819502,218.03387399324995,0.18914096842631917
2.337055603772895,153.51933384705637,0.2127138718310363
-16.531525505795067,78.00280002119783,0.1347847020987935
-13.150718323175134,6.233185782691379,0.27435239704088366
-7.3889669613127085,-81.08270037871166,0.1938373757204111
-32.66008137758435,195.95782598015467,0.18098231477835813
5.407827645996697,-31.585196829159162,0.24518191050742258
-35.63321745009027,-61.96631556751216,0.17345066315466173
1.96244442970104,70.54203027319731,0.26981322776602834
39.77499231822882,71.11438152702199,0.27078445397614637
-3.0645972834903272,-303.03229530477915,0.14911940819448
-24.989913550225182,427.0243050649779,0.15826535521028662
-17.18078594140103,-26.760977205344833,0.23215141734161232
2.0765724111013553,214.55826448940988,0.13078898887727575
10.693334664206285,-35.19339893426037,0.31891341863278755
-18.05826575097096,95.9013434950514,0.2051171311209563
20.005907845943764,148.37672543216823,0.2065602492657994
15.813543709049009,-345.5656482156924,0.2354261577499522
3.670245276385437,-147.93044252912642,0.15377278194796676
-34.71208173571897,-50.43452593622928,0.17733339884557314
-0.09413657691030357,-351.28784330721817,0.24896437341826366
-0.47968265713957176,231.1395535242022,0.20606659486780327
1.944590576714547,112.8529834897414,0.1895645312348873
-23.541654531251513,-319.64511921815716,0.1548804176700662
31.82679163356406,-145.42061763145716,0.17961909199912268
7.755576662293625,-23.28734401705531,0.22506351153520793
2.6650079848435313,-111.74590600200463,0.17155308152423426
-2.2616263367094476,120.92822658148997,0.21109681484672646
-18.90632000792238,330.3542307785582,0.22917531863080698
3.925814999161259,7.395922776334779,0.1515801598469811
7.649469477946175,-309.95325444408763,0.11069229244583896
-17.125505821518338,74.104918517901,0.19616352553986977
1.691910662706303,93.40401876618016,0.13782812663609373
27.875023088088685,333.17252258384144,0.15977418267429572
1.3802521579262097,-340.69682236757814,0.15474270049054545
4.759223592649953,-156.49922476218245,0.29230676586794113
-6.773380222448927,-91.39118027926914,0.31614912180760546
6.821987567188948,-24.21881421966063,0.1966903904600353
-21.853449798247993,-412.13836803753026,0.17693483634856305
7.328980776459419,208.16939949311592,0.2163606244885341
15.177821139339049,58.94003081627691,0.21906280356745372
43.681992773484154,-61.89963875578551,0.21609036332823134
-44.79828022705582,217.47925149603455,0.3022776795286069
5.684070447780398,-56.6002637764662,0.14006725818087223
20.706804648870666,-89.30728116655021,0.13561890825496778
-6.0363076452795354,-240.39551835077285,0.2502208248881477
-28.80770260988665,-104.5222415451029,0.2109365882084944
1.3629976047465207,-364.57368592369914,0.32970441804273654
-26.855373949182496,280.4129517136287,0.26436890672394175
8.895060643171922,25.665148402687088,0.22690334337998402
-24.275726549320215,-314.77319490322867,0.1697115254674813
-18.02645044204623,-213.8266650335967,0.1947459337533669
-18.187089626212458,-113.32597732180048,0.15497901954910562
-15.28690514720709,288.71743530688946,0.23224528931677402
41.55236717347755,-432.2242896852826,0.09516193105498674
-2.997471653288921,23.729895961025388,0.21089091106932822
-11.117156015724326,176.3129506334829,0.22625136032937504
29.192912281939748,-75.70389858700052,0.19231933522854455
8.88978818875623,53.70312233571529,0.18169003789147012
-21.41359650081842,-119.05254941662949,0.21627773748228968
-3.079460949281999,159.5730816775272,0.20488865543326007
8.040729322585495,-52.68944104049804,0.2640228814674683
3.144404977542931,-121.03781823979978,0.07005028667161439
-1.6651052112961773,125.39336167780408,0.17431500375364734
6.9217180690928535,-201.09119827034817,0.19833382307583228
-14.342624232534522,30.659196972611312,0.21919136098801417
-20.482599904018265,321.9061819970892,0.19145587125168864
-3.2416716565943178,-40.77281302870374,0.22235565010146657
-40.50118002745209,286.50985264079145,0.11704546829237793
-0.7244189278039593,-82.55598115654057,0.187503506137439
21.531873494147046,-87.78994945473387,0.2312738558632517
5.187975667314965,-132.32396356031558,0.2181633597254318
-40.146736059833835,-149.11263156049256,0.21517177021525488
-16.464573272915825,-118.6793085003283,0.24042644350143938
7.71299639093137,247.57057398872675,0.2337472216116031
26.91267322668643,-99.97508876195764,0.23551554364229543
7.275708943492036,-222.9242542432031,0.24207698616966225
-13.491901216152499,-43.16808741158223,0.25122219142614594
-5.27472244109558,20.586193833635793,0.1749115752896315
-5.988170119481701,-158.53305731737083,0.19271608958138206
4.9521030184421395,-74.24608887450175,0.22561625038522687
-34.37572356237014,74.02971901885091,0.1921779620309948
-29.79435705174616,-379.44398208296303,0.15463982259590667
7.591071997529801,-335.4308152083416,0.23494634941422995
16.924333189776213,203.33997010585912,0.13192896230848394
-4.390779732138942,-174.44681051808047,0.18138550397723657
-16.594923995068868,-235.84090404386458,0.17289425100619077
-4.6774821388473065,-69.1562955145746,0.141932928821026
10.006255018327385,-34.65639340684377,0.10583463146316763
-28.860274778865517,95.84327392001114,0.18920106204211415
-1.6407699830208635,272.89876550784913,0.1368325779771022
11.732881255269596,-59.908106488329,0.2751618004941861
-8.685271610063491,-298.18224707038087,0.14981199112850066
4.975680380931877,56.89140435021559,0.3025882601285459
-42.443520320539896,120.73974903770419,0.357353051293114
-0.7884041337015766,3.5427962962413027,0.20300820817579104
12.959283835392341,-89.6425866121985,0.21425638979725364
-10.022467201649757,88.99697436829416,0.20444249141024023
-40.00083601389274,-172.9398397695561,0.11741418722906155
2.1403944571713374,-13.524464374370911,0.21867854602436418
2.7091531847700634,-20.81043170107386,0.13663460656672238
-22.002078439465706,215.52629948452613,0.17039423356902844
-3.437731093404362,10.32107830977786,0.13668764634603242
-10.13528660691046,-172.16409857687194,0.15136006617261413
-0.3650414756526927,-306.53308632275855,0.2367676733202975
-25.32504733051228,272.30250108015974,0.25167698105913794
-8.208618355415748,-25.54211951475583,0.2839799054978204
33.51292191980368,-198.59517531264385,0.304781692015175
26.72069349813732,-67.29915121260433,0.13565430737443115
35.237524727377966,208.68593328011235,0.2858076603802033
-8.740130699645292,-66.53815452077025,0.18436392015041062
44.88869332097616,-171.11490663160765,0.2697867718123279
22.34881304990552,-99.29261333079735,0.2595341107610001
-24.241339938757115,-91.54103035881526,0.19274921484116891
-17.576891300544798,304.07527285186336,0.1077576038187081
-1.2982047535580452,-238.7784812283682,0.1342632941595418
-49.57396318373274,52.03989723076749,0.16421954651723125
27.654387377616377,-226.36128673449832,0.2992368134759842
48.44417627738612,235.6525633291786,0.2933267307552029
7.128285745010002,139.00376703900562,0.2213919197251109
-4.59336825032919,67.62110219917946,0.29560696727908886
17.866321456541307,40.27711034333343,0.11741031323076603
28.25536489381595,-437.7302111946997,0.15434877358234117
23.488463796882655,-58.24330646676867,0.1478299579085386
-26.714876710752517,53.324946794083615,0.24736855483744336
-35.43851194114548,-120.6005235807329,0.14985331213648737
-4.1317540368272585,67.01794422112164,0.2605690505314969
-16.8207323023091,77.50058322373526,0.1772147174352683
-51.50010498357061,488.7806173819904,0.26212175613159194
-4.080936851783508,-263.7896976531402,0.21054201810167364
6.387850251990007,66.26004078301622,0.07434130725269275
-11.40194650112132,241.2793268122031,0.2080520900495525
34.159483400498345,-279.2754571457878,0.1635951271137152
35.20205080381747,-142.8089175749409,0.19210005683722245
-2.4016631271529056,-25.106251062651317,0.25188208921594646
-13.448770896662385,99.28944138703405,0.2467756306212955
9.5304206139791,245.84971665165764,0.31321338859956577
15.428940088834207,26.90721275634356,0.17936198673887924
-20.62247639602798,-25.48696879424596,0.14409756344116323
29.742335512712526,-128.85190479848836,0.23396556541579236
-15.195316219474456,-26.423723369134706,0.19399528996783244
28.324693416746577,80.23068746792352,0.1962611549780411
6.448910705740262,161.9236518929329,0.1151457759276599
19.759353911434168,80.5882351734415,0.09834537412220468
-18.727514376026843,-35.185048074103975,0.23190975700216696
-22.401640728146866,214.1763780474752,0.14773405385090957
23.28389106403,112.40035265909047,0.19525970901263748
34.00083469157551,23.821066460592224,0.28359533530330866
-17.034426237246716,235.01214397348514,0.11983030381956122
-18.787694246686065,261.0250266944175,0.18340892161121913
31.78884699674335,437.79504022820583,0.21627204136687608
13.018244391213148,-80.0431112180357,0.22482704202814052
-17.051339730765132,-59.410727590982596,0.27104029318906375
8.605324889017115,63.239621945828226,0.1778027246176413
0.9863770301917791,30.090899485242634,0.2659625152516582
2.3935275319059404,-403.2223198775043,0.20100680845949118
21.788745564617034,-177.14774789233385,0.2595708363927676
-12.07904968596367,99.67356838680216,0.16104332987964887
19.738140216127054,-203.47377619399322,0.18945943092100184
8.899884298135149,-20.937238627883204,0.0735209091435324
-10.094346631951058,107.77874239300189,0.3260630443736448
-5.299311584413868,-168.91312888539198,0.24812763061078202
0.6431058159528831,-88.0450432446435,0.2319355800521562
27.69353863745947,-79.36810537782235,0.1813059480672757
13.699379730135224,160.3365019257044,0.17061307865007613
5.533394312536542,-181.25513152639206,0.20115314139564822
21.829263119293664,-21.35769525378413,0.28709474296614695
22.677444798993996,-138.56925613152913,0.17894749952999295
14.273206571468913,-41.218603959810565,0.23340859439649364
15.849177945565051,280.6638492386432,0.21991240751248614
16.635474718347854,-132.88374125775542,0.077957386595531
-18.703331993483946,484.6161365617757,0.20218110187883512
-46.83729536920594,81.81364275618482,0.17889816279582843
7.678967402768394,-152.16519838513383,0.14560294896414117
-3.457443995254609,-313.751571011887,0.20599181398830613
23.054948982191135,251.93067885122363,0.21214976288911025
28.01277109308305,-79.81179558143913,0.21976540543541162
6.671273478221476,-55.74304927256982,0.18206455648184997
3.3923592785982777,144.24771958417963,0.19144298150111277
-24.981597755385096,14.871892399366708,0.11361726585102824
33.088635894857525,-209.403038885329,0.22687109500686467
10.355246667066154,-26.042756507643873,0.16787926485118848
6.284217614601037,-43.87922149353492,0.29720474286227777
-26.759790804439838,-460.16823595625704,0.21740990515135925
-1.9573483384537287,-1.723483811979719,0.2443889720648411
9.258269925065019,112.51229268280002,0.1829803169379136
-0.7738842907304778,-281.6271053648908,0.21872841540086413
-1.7700367305111757,176.62799227885176,0.1456500150461467
-5.274228762162178,117.64355541162637,0.1795090011221981
35.57362113468733,214.80899033458027,0.20439799157590618
-33.735019051295296,-40.33413774533077,0.2131421361437177
21.737287177522788,45.708415675236225,0.17137703745358546
28.65816046367734,225.6739841561705,0.18247846168228732
-8.793903564407493,279.75500027229657,0.13325453003936666
28.20930822733382,37.297173039283884,0.2054248469907273
-14.848586455342783,205.61613094378814,0.27318070407454254
-9.940646818486764,157.48112554310313,0.22978616677587355
-1.0101304207151633,87.93314242784108,0.18642793916877212
19.893741475925083,40.54855230039357,0.22169985895054553
-21.79439807109002,-19.853421798805794,0.11480473947585451
-20.207828865684192,129.54528897068138,0.18538092795824662
-4.235763516493984,166.9667306208527,0.20052083357995037
-23.954264378089547,-156.4597721709702,0.2977980113810848
-8.868693064510158,85.78942993018387,0.17166987141376025
-5.981268735782948,-18.946804555243816,0.2621154907146912
-23.057032246198823,-152.74466177993298,0.13338983486763523
2.277568985536894,188.7264203150952,0.12315044129417442
-13.748299192196345,-200.8146525459626,0.17281463654984835
12.245079853652598,159.06190792195503,0.22236673529487525
16.779323442603953,-332.9139463893066,0.2003638380631777
-23.877697437863787,-200.7584241586353,0.20570046538863263
39.704271159872896,155.95430372569282,0.2331241561655793
4.469514723442573,-161.97939468873207,0.18660859551997822
-2.540967945695706,66.80734654905427,0.2134979214843419
-12.005872529581644,-13.846895388565809,0.2660509178305831
37.262761723626134,181.76944352315746,0.13395208003527231
-4.815476419639134,27.18023154591527,0.16955717990850827
-22.90562038900501,-70.51574621812613,0.2694133667881074
-47.490936317943266,107.76548488606805,0.24785710230116959
0.5567148856697971,-146.67382962998644,0.18351901682285557
-12.721546782933792,342.20340268392806,0.19996318432559285
8.541662184930036,193.89897381499173,0.10041579713467386
-15.357056936669517,78.82556751239555,0.214349411553782
-14.871627077832997,142.99051727448878,0.20158539874057188
33.264950036332124,395.1817567905036,0.10839648591558979
1.1771926460044981,64.03388884902098,0.22944610762655962
41.41726910845318,-22.211594470137975,0.14034203666760947
26.070451866957065,-83.05176538754341,0.2416501623021604
-5.941314975093049,96.3988158363991,0.19550875493596312
-13.904144013168459,274.4202613741179,0.22157845143272548
-9.077583425283652,-265.93603384566956,0.15198332182257196
-25.87634406801697,126.39159739909122,0.17203587409023305
-12.669162069256117,107.27512401563872,0.25917952498183555
-29.762478154028173,-14.494608430785108,0.24586716865197505
9.589357765312938,-95.4083093221977,0.10966144567328187
-34.247307559529276,-23.735388480299875,0.12595279384694713
-13.0377722144247,-260.9335821595419,0.20157500838297712
8.94520504642905,16.99721145837485,0.19132477511194929
24.190483065426278,129.6602441342227,0.2405548824301434
-8.745735960943891,460.13028199549086,0.09803182001668716
-32.88134760192066,-48.36979941225659,0.15120084681095175
10.149261614176053,38.52773180281417,0.16744885937127152
-5.817408053375541,172.61038097920928,0.19697700386508776
19.81273116190398,435.25455100781124,0.14736308773498136
-0.14019205279494892,60.82178036237372,0.19318058412168299
-15.084433686715702,-362.6070529159151,0.1970068219677686
-6.501341792482042,-90.06046577680985,0.28643759393956886
1.8389399264433566,61.477653676024055,0.17505079238909677
0.7255034626388723,94.65893198615754,0.25297464269228237
4.690407940520892,-353.47321426095596,0.14702469152629116
12.700673045856503,72.45513404149438,0.12454060889543209
-8.482283364878727,-149.49698368962993,0.24255139664385217
6.108924383330793,62.448918437738044,0.16028304327731194
-9.506972545004155,44.718221991193644,0.24579521597817622
23.233740058872456,-42.04987475188175,0.14355023497439265
-3.737742548225863,-96.95215672432228,0.362437962359142
-18.385125586672423,-255.9192816783579,0.18114109989634944
4.488518018453109,-22.38156961193468,0.2137582926510405
-0.7660178483928264,101.09076020107659,0.22295244891351534
36.86204753495746,-49.69508611955191,0.13859979306233056
-15.641198185655945,23.922128739603636,0.18270345881929928
1.7751023933091905,-281.945893528041,0.22864586075155013
-8.570562190057878,-94.91598674880562,0.1773640644712981
21.044752856725783,-278.6005580451606,0.23127021700458614
12.138766042308308,219.9646860890183,0.24580594550994558
22.84455121398298,211.230817800671,0.23025443869378148
35.15074281756683,43.09915393664422,0.30793977438868353
-7.772978082683304,75.9340252822528,0.18003083692780253
7.086837248325891,-212.45276320826733,0.25078962205213734
7.342803042328608,-21.721000755936466,0.19431775137123808
-19.612087995690942,-324.99866751612024,0.17668938660529765
-5.5203237218356405,107.84366081494758,0.15526447353220063
8.32866679583639,55.999912065324885,0.23078402989081964
-33.82707393012697,-118.39985948650144,0.20935770418476093
6.761575896300069,25.786197520189337,0.23441851587423918
-25.932245373250687,160.02562291226258,0.15369360515628938
-1.088705681533068,-244.9303986519034,0.20248872270807186
5.0617023977508975,172.18834331248587,0.17888881138253312
22.827563201264,10.527773158561544,0.1892576374572997
-44.48437407184893,-72.61133669939099,0.2655343478412022
-1.231740623705348,-24.90807560421813,0.23826805660777226
-15.663301560571812,0.8298197891275897,0.15926694773718741
-7.264460875485032,161.46283968950664,0.23419284598698464
2.2281754292571025,145.16839996623722,0.15322285078860523
-18.521315267529474,322.7317031891789,0.3360087994123325
4.498345639513849,-118.47250578659208,0.1010404689983832
49.745356276005154,6.67570579674574,0.2518131684838735
2.2210100425186328,-292.6504488941999,0.30557516046830413
-33.59597707393502,154.96197148443463,0.11689626164129864
-7.1014761907164035,-73.54187595605917,0.1844581073286768
-0.19150491022593968,-208.36125168071308,0.2994944041370328
19.955723374102266,-215.8423114094664,0.2100475757891672
-14.726461393162966,100.0078430952847,0.13748924101628762
36.742295648252295,392.0924298108778,0.26779558802183717
-22.426785458281255,-236.37693478266985,0.1919587638726339
40.746426156107105,17.385216210078923,0.15580699177638
27.154065184857533,-254.39152192067826,0.1680018690981007
-47.586482923983,-174.71158827963265,0.19245905124124593
-7.608065335894468,-79.1811524566524,0.13748632564146107
-39.78301993598021,72.05818262541938,0.20657393360004636
31.640574206403215,-260.5258848282441,0.21496738150773426
-13.617170042484695,365.172930289889,0.2253927839157585
-39.44558213102763,65.908334957414,0.23858086798303205
16.82289341895195,-196.50421051183469,0.2614317785069531
-23.646054652663402,51.340789210998224,0.161167820118316
-20.5150277616046,-126.3070769574977,0.22322612545776555
-17.6128068165591,226.9093687788666,0.17438612631171765
-19.533056498351996,200.2716716009817,0.23294197892346225
17.608407599053308,133.93089088201003,0.2651549882729569
20.917394950297115,291.33624218086834,0.12114706292564298
-45.2141603561683,251.25622162287354,0.09495121592132807
-45.45130025550578,290.741932573527,0.18267514841885749
9.016672745297544,-85.06858700070944,0.15701085332446302
-3.37330217333194,-192.79709439631964,0.1561971366625241
-16.83055394507043,164.79900019497182,0.16879088455187324
-25.105532393743566,322.83633217192505,0.19408317369918573
-4.18464991958206,76.5668831594231,0.18897238939951158
-24.00452322602096,-322.71643454429034,0.23101125141268053
29.031619063914235,83.63501251645798,0.19688356995307296
-12.018034328936722,-75.9736712082177,0.18514091985059328
2.590179971627732,-191.5168751206734,0.24099158804471607
5.658371026076098,95.48310025784512,0.21432742041856126
-14.032211578560412,239.699542665038,0.19358113967318477
8.373515222143395,-100.43448034804929,0.16780165058630392
4.836945891908059,-27.121646789939625,0.25199394081970355
22.714126138593258,-15.639780174787541,0.2138099419340922
-6.661179430074684,-319.4310176916804,0.11527064635472052
7.838601595084057,383.25265817486553,0.2091170570774059
-1.6035442411503098,-59.99805982218962,0.2269696953117267
-4.259455020307673,-57.76371521842564,0.23692497218221473
-1.433373034555705,189.7852793329436,0.14863557102012565
15.082988983531695,-449.4502298466595,0.16027637321435445
58.82591184989228,7.242994625574367,0.13303487257785157
-15.927067012559476,-319.60317253856516,0.2296260759979355
-8.915611334155317,-15.752460816230546,0.17386728707081597
-15.003879352721865,-68.09751256261255,0.2111616660830361
14.78517363187483,-148.1001618004966,0.27680899937478043
-20.940941882499686,284.9124696175375,0.2473176232177011
-3.218248964804432,203.81062858603133,0.1759109037270913
-39.58348006911873,-334.1667283503743,0.18996169423696252
0.9179392124716236,85.99580156542551,0.27672977523685577
57.23437914426606,98.55686698054194,0.19451937907543637
15.070559242226985,18.05398065814377,0.2576136401444687
-19.313752808855313,149.0570955796928,0.19253209344959613
15.340228743541433,-5.819852778527517,0.14357836950862454
-18.644195075206163,377.0115163871801,0.2691170218695734
-36.025100480434105,-206.8910921489452,0.17550809114221047
-8.258771900629808,-299.98683388366493,0.23800422836030738
-44.70851795793124,21.42681594366533,0.1983001619824959
5.5195319575986606,240.2152626839984,0.19428700386544476
3.1792620482470206,-32.15165192678157,0.2336323697183405
-11.520370162919132,-203.13937720536154,0.17621085596781563
5.6596417046623255,205.1610690113119,0.24798471791817212
-11.005462494896923,226.50061054870352,0.23771890183168504
-22.47524731613952,119.71989648366164,0.20870837123684893
-0.27589302556192496,-167.3638839341614,0.20594672057997251
2.1107130243382226,256.179649795366,0.12774236318605153
-13.862252391801643,-25.676642473452983,0.1495827692226879
29.759049557172993,-72.5837875863444,0.18312775112382476
-26.35688460768771,313.23579360788096,0.20334312146063901
5.332758188311365,-313.28034333969185,0.16690455547578387
42.385549170115226,-440.60882862457333,0.1672054015880001
19.386996912084243,-111.30063391651954,0.2527703647879845
-27.80537405534315,-162.81992666733004,0.24953346388590167
6.547411081685899,56.79815481278613,0.1403332342230683
-23.83762569507548,-72.51439578093749,0.221990578152077
22.334035138262188,100.15267800961199,0.1894300079140684
7.160216838140813,-230.59025068566106,0.20862889946527471
4.2027379679453185,171.58559187508092,0.15900457063755105
-20.972599399469516,-19.86097725187029,0.1645546151406952
36.144516931204286,-214.1854346199206,0.27804210850341443
11.042326854041411,197.36485891103447,0.21738338064753263
-33.91653327645473,230.72494301315643,0.2031451825827098
41.55502868534804,199.8898934103276,0.16959664121627416
2.18336701691225,105.8305460304362,0.16717121045228367
13.269652023506922,-13.261365790326105,0.24259284897691835
1.079747411654382,-58.50960192658249,0.20726340202086865
5.057697641277001,56.35471653712357,0.17439322336743568
16.72353882984729,274.111104817205,0.1290894564632865
-24.02840947290928,-237.4468850812839,0.14361463233481137
27.78736907777884,67.95335518941135,0.13536422150687533
-30.549002104259166,77.00873466098484,0.11879181859588135
42.113469842982106,271.8386664228677,0.2223566012549673
19.562878480506548,-128.96182237063866,0.27926084662803996
12.38114055830533,-231.41737540162524,0.2945503853594123
-18.44801285125664,384.7153200747467,0.14281632938555217
-17.118055986552,282.1624497218813,0.17516072997787546
18.695513026629023,-227.90844532789006,0.2546446148039822
-15.471523531575404,-191.30390232861185,0.09295037686811083
11.144901434941348,-404.11559391854325,0.2560088478921112
16.461584648557142,-179.5875904774688,0.19451099288229853
-0.3185555001104433,-251.46741635940592,0.1974007684345455
27.332166073631022,-242.73829266855645,0.20161051237829367
4.751054927237075,7.153363585416331,0.26318686148656606
-12.335846072963449,123.59755514043212,0.18288062802730679
11.443735656576223,-80.76178636831716,0.2226665781536068
4.340604539694292,41.51903215819477,0.15114111346017206
-12.008550347160165,87.03573017997671,0.16914167425895987
-6.358110313415074,97.10368811775226,0.15293865498208503
9.36419027868505,156.34507893835698,0.2009243256452271
-25.639241535052662,-42.39308035827767,0.18003462447657648
8.911277084282084,-194.1804264877289,0.2412501047875185
-18.848949033047692,96.70018226930033,0.21530140495786018
25.81129585260279,-2.8960536290161656,0.16885136473560228
-44.50961900775592,326.14330421824656,0.17698632037460205
35.746556106091305,-264.66029792528303,0.15688134805728365
24.524099570590067,33.13148343414712,0.22345773648962325
-25.178750934151893,-86.06229623613424,0.2220635971359768
-12.389234804014023,476.6614834759804,0.16105466435726348
-0.745235522716553,-245.61989471719778,0.16025865861880995
-1.1463454585269341,-122.84615722950466,0.15503073684387886
39.33260013546862,-172.8195720903245,0.18006883440992305
21.148390172270012,43.52085789602009,0.19234555933431707
1.9066864751904715,-465.13635443230885,0.1535715055335229
32.17072303707945,29.346882298571984,0.16523007123195815
14.606208758332823,-14.74909444609953,0.11847503580122176
33.301723235748945,251.27650609232876,0.2036865989194875
-1.8558987669452753,-352.4996160747312,0.2187059902090894
5.960144321106638,-199.6811695258398,0.26436260727346655
-11.587664380919765,-135.55232363760888,0.2003544813453392
-4.853678916635433,18.140573047257398,0.3347681226483109
-1.2574981838943091,-183.76666687647233,0.21363603372829562
20.61488576760307,-20.844370931506486,0.1289442671348323
2.330786614366917,-59.43310653146672,0.09816337558448594
15.036793407372187,-230.93762557817382,0.148739800923034
16.287328554036296,321.1732491350546,0.21051294752814717
24.16870452876865,-556.4584631690253,0.19513236273323525
20.42607532152006,-315.9105537781085,0.2241060548497938
-16.232085290701214,-202.46024547892375,0.1530357298080234
6.860413540709018,-280.47305497933377,0.28633288542687746
-25.0176551154674,-82.37925474312321,0.36398805545084906
15.744007473042739,12.909580557708052,0.19925933152714986
-3.092985591174421,32.41872591786195,0.23880326507408378
28.691761066646016,277.5017394343874,0.20182986153114793
6.799563933762847,153.0301661088967,0.21600722228736707
-17.314291610827567,108.7373788472745,0.14694006549292385
-6.340831363093768,101.23974804575555,0.21112080841568343
29.056044880271045,229.59266551153115,0.13177852934450482
-9.108736550628487,438.4563416745337,0.1543565291029938
16.884726330453706,111.51543800787971,0.22565555319328082
-6.978447761347298,-112.6144913143964,0.24772097361436027
0.6377485494447335,219.96147710265598,0.18086441738453654
-5.5768357243950675,-99.70726921323151,0.2030074324876069
-16.751905838202056,-63.570353481483956,0.1580153565893466
20.556457367006686,-178.82615371502197,0.19507003875509243
-18.891161838242827,158.95608121391106,0.22443914070734675
15.382927488098602,29.020102944232057,0.22743625063574874
24.21092701581435,-507.7595011517611,0.14174999781798314
15.818148986746017,-149.16959872451145,0.17333653662971046
29.41913066828291,129.0801963840981,0.189711045909535
-38.58391709540139,-166.87485743917426,0.23867859477079284
29.576380613776813,160.1349656101817,0.19926524389557432
-19.763080820271117,-283.3872253709977,0.3062566530726654
-18.163105073125475,23.94147672141305,0.3145582453550267
-14.050710654596969,105.51158513435294,0.26540793469289053
9.079524541272084,406.70866575388754,0.26844180866497364
-18.376673730048985,-169.74542539738323,0.20879889146571667
-5.286117139774472,219.4776028012678,0.24538739320693584
-2.2248969885638643,-192.96592028476095,0.2251062806782297
-37.28516803156366,-1.06289417976823,0.23772849953191635
-24.555942173965274,85.90435072150522,0.25286269017238694
-6.28301969931533,-49.730405685980294,0.2552920594131209
15.592528866241402,-119.22691321060432,0.1822988872274974
-48.017731876471515,186.9244086745437,0.20126870634532248
-17.176797001295284,-7.053404776584095,0.18359919738993313
-10.334371126862887,-95.9162677105453,0.1082084191368685
26.48755025072259,156.22181706606153,0.15721966122144587
27.803685619357946,-13.30263765047454,0.18302577484860538
3.1859753919458536,-37.003337140252356,0.17455596615291435
22.530974534447182,-160.32244535810733,0.1756210651589624
-11.354953633270867,-114.0917860686665,0.15263527388801015
9.993298363035418,346.8199239303216,0.2137785979326196
3.827023941644318,-173.11723325570134,0.1640325222191784
-5.126794807645323,-417.3648509458304,0.16577973414610558
-9.955816639245892,60.560875129358216,0.15917600637120893
-14.210519402333679,-78.27299007181024,0.12691875332278274
2.3450948518201638,137.81031186027656,0.17565902206063685
10.590220085454021,340.65467241800553,0.2536356662954339
19.46264029113396,-46.037210532918834,0.18559006758913998
-17.375186405511748,246.25545181081696,0.21030421763237017
-8.663627030964406,68.38523909785465,0.1432568646890645
-4.800042765919211,-240.2086631078181,0.2777754696789882
-2.2290848775991283,-222.84667247409283,0.09085622267522815
-32.975577912634925,-188.77227831554669,0.19505018139617847
3.198382526976217,151.40773125302127,0.275352569355716
-13.865199302520244,-9.134578081931087,0.23026478810132903
2.224458614090524,65.2113713492662,0.31187875843757684
-23.972846986129298,-284.2592145780491,0.1643280340121645
23.2013912617219,432.9337304229834,0.11826110401825124
11.598702877094293,150.1466885641054,0.18044290234955618
-15.679367700671303,-193.3620724887202,0.22342718723995447
-3.973621078641548,158.43664369771784,0.14446974726082767
-22.19710239984245,-38.24259861045644,0.13386285202772052
-32.21890811140932,51.581303709731216,0.23120172391303723
-38.177631687558396,528.5196123253355,0.2452949841163193
28.27739563023534,-79.21055444205437,0.1579449340690645
16.742631353159315,21.93023386838021,0.1793169871359498
-33.71954091815926,-262.467835339879,0.21896961471920223
20.625492837092338,-164.26309743414225,0.10799552320616712
-1.1292967216723444,-65.36870503922377,0.1778978643494019
-17.266409027141222,-80.05528985604951,0.2534006848723943
-2.164504943255495,-394.7387621845253,0.23659525114920205
12.55244842278093,104.78340661661629,0.22129000419912195
-14.737554468082317,336.35332600332487,0.1002281010234655
11.185231935534997,-186.1821652324662,0.2654939993768346
18.341408936952927,-286.22853061742245,0.12000716755288125
15.420592483420526,-112.51837700994656,0.21171225308233993
1.0728486732688622,33.473612997484096,0.22369307536419678
-40.85830553904218,244.24208425439707,0.28333841214435096
-3.3272328117640027,273.03395166612523,0.23938580244444782
-39.379126873098016,111.39706567356615,0.40378379860270414
-11.839121057058835,0.1423415641376678,0.13790843639171693
2.88294798133961,-146.3358136844839,0.21792713651924228
-23.711453026662788,-72.20265417210004,0.14643971892304414
-2.244322779592169,251.09951629357502,0.15930027879833147
-11.896041360220204,-85.52939794446466,0.19664887627595673
-12.802813874363057,-9.066473354566007,0.13392162582040784
5.81649263440478,-59.75309306907012,0.2126546621733426
4.5455035460956115,-1.5156131581415577,0.15680206121713325
-14.816007048200088,52.98975089013953,0.17172878801357608
-21.003239156445296,28.34675887394289,0.1779779559990006
19.39201289149479,14.307073074359323,0.16507558426017768
13.326530749808033,405.9026268908037,0.20865710357115919
-41.003063615172664,-120.88730575611208,0.21125072468526324
-7.8166056779138335,60.95262935488517,0.1734414205975885
14.727479356965706,219.29139176805768,0.232830988845634
22.99166811983214,-412.56525113845174,0.1911970580652069
-15.912045353101634,-146.9659927238263,0.19894560888750942
16.06323466953928,-133.668909160232,0.21253815515703708
-31.27217592260033,-307.68710650681766,0.2416280142582198
-1.611861414528152,-328.28883695879887,0.22850678486934875
-0.6916699774919367,130.95227887203026,0.22231037061750977
11.393528641806194,154.59407881175377,0.16179444447384858
-18.00081002512013,-32.320945659164764,0.25347822417779936
-5.454021421618198,58.299314125933954,0.26455889407177685
7.911596659433276,-31.3276309449079,0.19842081167779077
18.93363876161781,111.25879531675666,0.2549616838975929
48.07785282241242,-140.54483456952843,0.2787275047956612
-28.81183051850929,182.9853046952858,0.1415789533574107
23.525220066103522,-58.09288291328776,0.1810915718681621
3.0812471800311307,-233.33436852226907,0.22085953443430645
-4.456792634191729,117.16004947529743,0.12512510352740158
8.353991393819463,-456.8046343838391,0.18728305024395456
8.230944203044707,306.0369511543037,0.2838902296475617
-0.1459247601864192,182.69976122675382,0.17641314042071596
7.225322010178225,-97.15630048241955,0.1752625706687604
-39.29467253086324,-260.83038549425413,0.2256347641150859
16.13008267691497,-29.108185982950168,0.32015112992380573
-2.5185376228698826,189.84991302901116,0.22444444189680726
12.766473319633125,-18.470856096228868,0.21608732166633016
-25.55269699358703,-100.89582451187094,0.21425432038051756
6.743478080387883,230.49223556924136,0.22959074344534286
25.00942053849772,110.44382496509701,0.26117206676528304
-4.787566967004049,39.3650146308966,0.13837183670709258
15.899943013678321,282.5620168006802,0.18946627526192256
-2.7097817054834317,227.89110894934024,0.16210750140479965
-7.168867149058698,-96.09025235130707,0.2116524823265254
-36.3170175120947,-71.92161762963129,0.21533939918373796
14.242626167682054,125.7961408545518,0.17977451681849313
2.9139425916280457,319.5150432274991,0.2167473943574526
3.966552486950529,191.8687271049239,0.25873698576882015
-0.568803061124304,-54.205378496026526,0.21082389585674124
33.60391535578677,-180.41682102904826,0.18338032013914177
26.580348575785003,314.1191159863362,0.15187811365538725
4.9906483195004565,-63.09388128996747,0.1985156439158759
0.8827583535021427,-256.9657360175678,0.19740390920904444
29.53037060786216,-101.43259174274422,0.17311615718401208
18.272156701137895,37.43326154992047,0.21158305230789073
-19.984882495973597,88.65487257004452,0.20267407423367104
37.248454014400416,76.32035337033125,0.1506134748090075
20.791923687831456,-105.8214367581308,0.14203868763989227
30.591201373179857,-16.741455909925914,0.2733141454411503
-3.8676129924207574,110.58501503996506,0.19884266947091564
2.154370143515137,136.28302626340084,0.18075735967968037
54.89445488956327,264.8090208572651,0.22036684104693732
10.96915018507405,52.4984869175638,0.23157810920265137
-31.4029471594499,89.56281016204514,0.30915814006764625
8.817181982713691,53.46469305410891,0.2330917625812122
17.6457924577628,-63.10801834965633,0.1778681721823522
-8.896782408073433,281.07329135595387,0.1778087898243869
15.868111255647317,-133.18191132927043,0.13806587961354222
-1.423019752041688,264.1975048092174,0.34413214318016017
-3.3142141176675546,-5.808377844698747,0.1599230253645983
2.5514310955550465,36.697225206346424,0.24115268613714108
-9.522944065481417,-29.056594896613632,0.28930917118069444
6.60662877683678,-114.48474163381441,0.21520509691821677
-16.949211296888137,58.66223328937791,0.23248353731413132
26.13350828768318,241.93038981294958,0.13592245641330752
-2.20714741467742,205.71070812969512,0.24404459300528364
-53.120394873395824,70.39111595137484,0.176171007743214
-9.780401186912075,332.0557778020181,0.22395075315078405
-29.440220598846928,97.30312472282114,0.15580375447590336
19.07150654358348,40.717108156211225,0.19926274593771415
13.145497079139592,283.3445555972128,0.21887810957715298
19.312283539876983,46.476237168770375,0.231780546989477
21.198231225641628,-29.60140350128343,0.08138330622941997
-0.49746177390916185,376.0827586224279,0.1556026171289068
-45.357754441710526,-224.44367174113148,0.2652418475100115
-29.67840657385175,320.9197678826762,0.17995720847986668
23.128516779620412,-213.05434238451025,0.17042666875286422
-9.771623858096133,-282.4512502088869,0.15730854920515305
-13.605904177382385,-149.74938058150312,0.23154649217027695
-29.460816628005414,-17.941531817052198,0.31214946507316643
-40.20627347915748,-189.67625583649144,0.25912940436107107
1.5119458008689892,-125.48601886522708,0.1945226978836665
11.283074153331778,55.373013620460966,0.09437146991463147
11.62358572653038,198.8804156079154,0.2570908807992976
22.747556467426836,-72.57981616719046,0.19008245964501902
5.8900508467445,132.3293043334397,0.16722564832667502
-28.146513724372063,253.2817906648651,0.25901008290448957
-11.502251760033676,-154.85687513813872,0.21423114575621552
-16.383730619628455,-73.8569961316298,0.23723154897251975
4.7074311988976225,-14.107033957631405,0.17002746163621113
19.587910690669176,206.41931246506257,0.16254942666971917
-20.19567185036199,-138.64643149263634,0.20492253080675282
7.016459657204495,155.97023248046835,0.2546205926670414
15.854221451267637,-127.94029331193819,0.16625440699513755
5.774136221286371,124.74177412847654,0.10900216924096157
19.64803890471338,-111.56520350925135,0.29655822213071686
-8.419065422396843,157.38746734568937,0.1989329376183004
7.2436561093338305,-61.58979173762143,0.17506690836062164
39.004504909966435,-182.8920452477164,0.19691015574775378
-28.248230843000293,211.46858655560274,0.24539986702100336
-21.83246590645538,410.84898294373534,0.1655289372849638
12.649509626966593,-271.96908314826106,0.21117283315458332
-22.34056077023425,130.39328293321702,0.27634874442913554
-17.80372542426846,-100.36974201848217,0.1319774698473517
16.72024121421965,-144.51354613307956,0.21250386153625062
-11.849103367738971,15.829600687574697,0.23029542135639244
-43.424101904783925,305.93878155808983,0.20084374390833332
-35.5379142301731,215.03831613747914,0.27340479219861086
-9.008583315338706,-161.72941912224158,0.22699699313828997
-0.3651126874073267,280.65491047084885,0.21435788288866586
13.711586558351636,54.855106857063184,0.17723409073267607
5.401798310073415,-206.96592959853137,0.19698030546866835
22.979905734280596,-84.4043440631153,0.2236362286746389
9.685535694256235,-196.98690106342372,0.15546145207316853
-18.464555898141285,54.248694696603394,0.194018092625481
25.23676996283692,144.41728863456777,0.23082042156088048
10.269096396986155,178.5141579153458,0.14248333528129453
24.352596886953954,49.32496555841661,0.17602145202581174
28.951584263291537,77.03790701101384,0.20493472921703693
-19.678740548134456,-372.77602780777903,0.14647961731942127
-1.5537710264803355,487.7476567540814,0.1710134335911999
-14.398660663720191,-131.59902310822952,0.2154260960271668
28.644189267623403,484.23455774376976,0.16225102132616717
10.464028850714914,82.06250832492448,0.21185694311654207
-16.19652054264713,150.4238770944204,0.21596076707635217
-37.312141254751914,-322.47493004248076,0.18344352933384214
-14.028822671644372,-202.71663051602548,0.19164385633981082
-10.761469229691683,-148.103153325332,0.20284387986814828
4.384794885376961,119.36839706645104,0.23778220422524338
3.1174853019167448,-461.1922715074493,0.28943499231804576
0.42465200566973726,-105.99685476272649,0.22009654461223646
-4.302414386724639,341.3367198463144,0.1130645069719685
-23.90576521363249,58.14194825245719,0.20289620988058135
30.163735056838057,102.67967338957877,0.1372978335520108
3.8276976635135975,43.61598037341287,0.17512396255625007
-35.99862543375434,-35.29629590802828,0.2713887798832598
34.731555004917055,55.51690838551943,0.21502310288922888
35.76205451353857,-16.429672761578825,0.15202496768163098
11.090375075768009,-45.78426962227534,0.23130919588884508
-12.242626548289746,12.492493789329865,0.2293288774386263
9.858944186084623,208.20316733604983,0.21341425142746132
-6.488625215237418,-218.28491631892288,0.2126385698338038
17.197145613157957,373.2366541349258,0.20321465793212845
-3.5186491069435166,34.14707957138143,0.23989363622331716
21.17409669307667,82.98392671488175,0.1896118807310528
-23.044133338674342,-7.842134570179462,0.09347659458049512
1.9599742918972347,-30.269212265377842,0.19139997752605264
-16.59055297784966,263.4544258456173,0.16198982452561084
10.628386004714995,137.61817226750665,0.27985062741056127
7.93223993667679,-152.37540842677106,0.11116936769503358
2.469482881941679,-299.0416935452913,0.22747311957037397
-17.070204246514397,-347.5874536593946,0.26806859369420044
7.106595068417864,-185.04251590208645,0.17381527964216617
11.024342912893504,194.21415218304517,0.057284318645955457
7.876726259868834,229.770549692338,0.219575727418849
-1.487852959068501,-92.80402316257154,0.25873197573422657
-5.725185786797626,168.4803753756271,0.1601178944418423
-38.071135812035294,121.58546275954866,0.11593230612218759
0.3355036691748387,-74.26772339631124,0.173745258827104
-15.05576625698388,-48.74021330593702,0.16561552344311173
4.0807720806384005,653.2856608953847,0.19392451947009884
-12.788803176510635,-313.8456665066084,0.16258975964343322
10.120818617899134,-28.643041773552508,0.23036414551193776
54.00644287283728,-112.63343767282146,0.24247688077891577
12.11585330660957,73.03635257907001,0.24951611497856221
23.926133462276344,25.29251318632272,0.28141522542422803
19.573093332458654,64.5590553889123,0.20743952304203425
41.95244351966873,448.9906514688614,0.22222784872963983
16.93781086794383,-234.00469135983292,0.11581068022831087
6.030648484942161,364.8807095998106,0.2069915745063475
19.888534864670085,48.4637606795591,0.22435793359199294
-0.7630100925698567,-52.83164480567106,0.17799011249083146
7.24918529039013,204.03811640965296,0.24459445098525312
25.47212307135204,-22.17271771464806,0.19606019018717455
15.253511467175242,-300.3147169853262,0.3287956318516659
-4.58295991966912,42.07375454703729,0.19437780641749058
10.076826763745741,68.5284752634098,0.25130845337707075
-29.546831221417253,44.13726284239943,0.14686575165292948
-25.3412874964523,23.16013183206758,0.15807890594877855
-5.17379116634287,-7.5566094236663455,0.2369059162897025
-51.7251654375173,145.37931458812568,0.16835481044843903
6.992259826568223,-241.36845799940662,0.20282592176677247
13.278350381608085,-31.092314937303883,0.17864050335682655
-5.909573703265183,-150.9502164608416,0.25920448274592295
3.478559393219856,-202.4144852224177,0.10226033391499856
-30.36284210992126,81.18613129155767,0.20132287488394424
17.275431745357878,-249.62810828186028,0.21869330699482392
-17.52001964140295,-28.983471088173474,0.17698349516131864
18.95109045349884,-18.22540723668489,0.19945070696669434
-27.868561295658623,-23.273888346368647,0.12182012871250052
-1.1436402974425166,26.844652577557653,0.17306507055902945
32.784386901820916,-78.81730227247078,0.2672236199392038
7.507803655620457,199.1060919554109,0.22939382877877285
-16.47382688727159,70.83343319944366,0.13815979818594354
-17.66035688898227,119.27114155666393,0.2071125631194828
-17.34300662304483,32.98928695141429,0.2154728651990677
-13.210420841734578,-132.22591740065553,0.20093297106242175
6.62096777841322,-39.728832042159176,0.14780671772868062
-21.94202645401009,33.99741745556173,0.14935867555109364
-17.893605545742997,322.6191872831191,0.2535968019132878
14.214782724078614,202.22836091592632,0.1344395363265744
16.983396077934234,143.32319993938813,0.2579598849493985
24.711193899811125,32.2570429148248,0.18547483122081285
-15.661023615181966,-82.21280540816947,0.12417264722529452
-11.234961444411715,15.155162821278513,0.24924308891689825
3.8490398475115475,9.803621439171291,0.21241715923764834
-26.459315581641825,129.76362928166344,0.20557514228097912
-21.88487515702356,65.82009871509564,0.1828870664713144
11.043029181247777,154.95939644310133,0.16550660931032896
-37.084515258128185,229.0646274427036,0.18890086940152842
19.342146449561806,167.01429645477597,0.25272416310406975
6.860161231380255,-69.113944705586,0.21704526470743069
26.130702523808115,118.74976393933925,0.257386150138463
-23.56847809844464,215.6824821569225,0.09346030752555157
38.24828296628929,171.73770842529106,0.24508924250166544
-17.60048408863143,-186.50316003348536,0.2475391576120606
27.790243287322134,264.7390377215447,0.19988050284305894
5.423219740943352,9.40534310403972,0.17052777404986608
21.601938799599196,-180.84175883238626,0.18649739277165536
10.704653375626997,-136.8570228583009,0.20469471679742635
0.4180171508685329,216.0801954412222,0.3061896662926392
-3.8039677599761617,-193.2278994378871,0.25672369425477126
16.00724107291807,439.3238526268582,0.24232178046933256
-9.993725624613637,-63.268741061552845,0.19635889395978523
-21.749272143505625,10.682320300010604,0.22606191298533468
-29.255446795257974,14.006521588661766,0.2542521339081615
-0.5467135507587086,76.31815270458321,0.291251804530776
-8.354051201971327,179.2934924367702,0.2028082426035216
15.132982287714164,194.4034164323233,0.2405321839487765
3.007782183637649,-15.983945709516476,0.16711562238740385
-20.78745595166709,-47.21120394051573,0.22539346880003555
39.35656844398093,64.35702372100612,0.21830596105584724
